# .PCD v0.7 - Point Cloud Data file format
VERSION 0.7
FIELDS x y z rgb
SIZE 4 4 4 4
TYPE F F F F
COUNT 1 1 1 1
WIDTH 948
HEIGHT 1
VIEWPOINT 0 0 0 1 0 0 0
POINTS 948
DATA ascii
0.04635641 -0.096263401 0.028440408 9.7471967e-39
0.050197203 -0.099658892 0.029310819 9.9308663e-39
0.039268408 -0.086075217 0.029257402 1.0298924e-38
0.041011035 -0.088400513 0.029135823 1.0206729e-38
0.12551078 -0.083347335 0.02563604 9.1018231e-39
0.12495787 -0.074852705 0.025642937 9.4702483e-39
0.11822081 -0.062513098 0.026368866 9.4706098e-39
0.12210757 -0.066870563 0.026359983 9.4709713e-39
0.10770732 -0.052167103 0.027733859 1.0115982e-38
0.11337104 -0.056539427 0.027419182 9.9326726e-39
0.097280875 -0.042798698 0.028851407 1.0115266e-38
0.10334308 -0.047740441 0.028409839 1.0024151e-38
0.088730432 -0.035928808 0.029613094 1.168295e-38
0.092300534 -0.038451951 0.029257679 1.0853554e-38
-0.03526853 0.023040485 0.029273415 1.6815582e-44
-0.055349149 0.035722204 0.020720081 2.8025969e-45
-0.023358962 0.03571444 0.028977722 8.1091951e-39
-0.019063374 0.037036285 0.029010847 1.4012985e-45
-0.066854805 0.049633376 0.029010579 5.6051939e-45
-0.0056336299 0.048450287 0.024776187 1.6815582e-44
-0.063467704 0.055591125 0.025536463 9.8090893e-45
-0.056701101 0.059049297 0.027103642 2.7658829e-40
-0.049375955 0.059332877 0.028021909 5.9919382e-39
-0.0040648379 0.050430786 0.02402373 1.9618179e-44
-0.053807341 0.060979955 0.026333859 9.2159196e-40
-0.045351949 0.064999297 0.026438022 5.6224537e-39
-0.041386593 0.073063023 0.025657168 1.847598e-40
-0.037886474 0.077356003 0.025833849 8.4077908e-45
-0.034997981 0.080727801 0.025190892 8.4077908e-45
0.059306152 -0.12055207 0.038245678 7.8114556e-39
0.065874711 -0.12260211 0.0353541 7.9962e-39
0.074845165 -0.12584211 0.035207149 7.7196089e-39
0.082738377 -0.12662858 0.035265919 6.6164997e-39
0.092566587 -0.12510455 0.037175525 6.4682396e-40
0.056490064 -0.11389089 0.03555505 8.0876754e-39
0.061676666 -0.11837316 0.034632411 8.1802311e-39
0.048288524 -0.10302645 0.035920683 8.8256033e-39
0.052300405 -0.1066305 0.034839571 8.6401289e-39
0.039206576 -0.091356106 0.037744883 9.0107205e-39
0.044302296 -0.095470876 0.035164151 9.2854997e-39
0.12632442 -0.090010613 0.035843007 4.2247958e-39
0.036594965 -0.084632434 0.03590522 9.6542808e-39
0.04097341 -0.088663459 0.034298416 9.9312292e-39
0.1277898 -0.083857358 0.035184644 7.536298e-39
0.13043313 -0.082241751 0.037193578 8.1845611e-39
0.027966056 -0.073086686 0.037519269 9.7464778e-39
0.032048345 -0.077542618 0.036412679 9.9305076e-39
0.12707365 -0.074932151 0.035024922 8.0887558e-39
0.1303845 -0.07844568 0.03684688 8.6455393e-39
0.019209327 -0.061032981 0.038562186 1.0204925e-38
0.023396881 -0.066101357 0.037792984 1.0206371e-38
0.11816609 -0.061646719 0.03500919 8.4586229e-39
0.12300045 -0.065952696 0.035316091 8.4582614e-39
0.01640898 -0.055757347 0.038483266 1.0574429e-38
0.020256676 -0.059790585 0.03967825 1.0480803e-38
0.10795137 -0.051854759 0.034977216 9.2880248e-39
0.11402211 -0.056078378 0.035299998 9.1039951e-39
0.1201898 -0.059413265 0.037757047 1.1228456e-38
0.0095941359 -0.045162853 0.039734218 1.1035413e-38
0.011797489 -0.048332885 0.039397188 1.0666264e-38
0.097376198 -0.042351369 0.034992684 9.9315922e-39
0.10378688 -0.046940256 0.035386149 9.8412e-39
0.11026911 -0.04980883 0.037752733 1.2058941e-38
0.086979769 -0.032900833 0.035530474 1.0207099e-38
0.09306702 -0.037610952 0.035946339 1.0024149e-38
0.076697029 -0.023771549 0.036792353 1.0391487e-38
0.082323998 -0.028028976 0.036669068 1.0300377e-38
0.066371284 -0.014552008 0.038212776 1.0851742e-38
0.071769305 -0.01850795 0.038084581 1.0391847e-38
0.058096565 -0.007211152 0.039482687 1.0943213e-38
0.061254814 -0.0090647442 0.039200287 1.08503e-38
-0.037225537 0.021729158 0.030639715 1.4012985e-45
-0.022540506 0.035956904 0.032588568 2.8573246e-39
-0.019980544 0.036649987 0.0309103 0
-0.063202366 0.049559429 0.034584764 2.8025969e-45
-0.058811635 0.049656566 0.038963914 0
-0.0067245006 0.04891815 0.030590054 0
-0.062419716 0.053780381 0.032842442 5.6051939e-45
-0.055325594 0.056475122 0.035166666 9.2198432e-41
-0.048024744 0.058383379 0.036694746 6.3582222e-39
-0.052114241 0.060780607 0.033014175 3.6842239e-40
-0.044403132 0.064113192 0.034843907 5.6210215e-39
-0.038133763 0.068024971 0.037794054 1.1056287e-39
-0.041011631 0.071995012 0.032805569 1.8440247e-40
-0.035818215 0.074695647 0.034402549 5.6051939e-45
-0.029170997 0.075155005 0.038430229 5.6051939e-45
-0.033439841 0.080677621 0.031797022 2.8025969e-45
0.082038708 -0.13013038 0.044140171 6.4284917e-39
0.059172548 -0.12073652 0.045114264 7.2593552e-39
0.065578811 -0.12303864 0.045258276 6.7987302e-39
0.07478153 -0.12664574 0.045226153 6.4306652e-39
0.083331473 -0.12760806 0.045573093 5.8792892e-39
0.04946338 -0.11049827 0.044106636 8.5569646e-39
0.05584411 -0.11414413 0.045275088 7.0753171e-39
0.061854798 -0.1183823 0.045584071 6.7983687e-39
0.11374167 -0.11269525 0.048694517 9.257398e-41
0.047737073 -0.10365305 0.045269728 7.7199718e-39
0.052214105 -0.10728453 0.045245633 7.3493816e-39
0.038798813 -0.09188465 0.045848142 7.9980063e-39
0.043364767 -0.09585508 0.045208998 7.9021995e-39
0.12709698 -0.092122458 0.048178099 4.502833e-39
0.029676428 -0.080298275 0.046412464 8.5504682e-39
0.03523431 -0.085143484 0.045126151 8.3635406e-39
0.040515773 -0.089124233 0.043323629 8.8234355e-39
0.12814787 -0.084524408 0.045638636 6.3395499e-39
0.13050644 -0.083718464 0.044365693 7.444464e-39
0.02707395 -0.074012212 0.04533004 8.8241628e-39
0.031205866 -0.078351542 0.044709213 8.7308826e-39
0.12659727 -0.074699067 0.045406878 6.799812e-39
0.13027404 -0.078487307 0.043983407 8.7373622e-39
0.01820631 -0.06254524 0.046168547 9.2855025e-39
0.022376528 -0.066700816 0.044963203 9.4691707e-39
0.11741833 -0.062640049 0.045934841 6.7072562e-39
0.12262471 -0.066244416 0.045123179 7.0760374e-39
0.0092553589 -0.051146448 0.048160147 9.4702567e-39
0.014246807 -0.0553024 0.045423009 9.7453946e-39
0.020428235 -0.059997186 0.040794376 1.2519203e-38
0.10755774 -0.052504454 0.045919336 7.5366624e-39
0.11367022 -0.056374639 0.045090392 7.627772e-39
0.12035765 -0.05937396 0.045890253 1.0303246e-38
0.0068609454 -0.04449011 0.045903977 1.002126e-38
0.011051045 -0.048351251 0.043412637 1.0297847e-38
0.097634032 -0.042438742 0.045400761 8.1816745e-39
0.10368584 -0.046720359 0.045059152 8.0880327e-39
0.11031535 -0.049870051 0.041946024 9.6528249e-39
-0.0015372852 -0.032625701 0.046973635 1.0297484e-38
0.0022654056 -0.036670119 0.044974118 1.0482237e-38
0.087709077 -0.032288425 0.045398079 8.826325e-39
0.093384981 -0.03704894 0.045042705 8.6422939e-39
-0.010828875 -0.021277372 0.049344409 1.03904e-38
-0.0050999443 -0.025514364 0.046108641 1.0758823e-38
0.00026433752 -0.029308204 0.042004846 1.1589672e-38
0.077320777 -0.022368327 0.044920184 9.4706126e-39
0.083213203 -0.0270104 0.045454342 9.3802219e-39
-0.013286318 -0.016057888 0.048873357 1.0574791e-38
-0.0090148794 -0.019274583 0.047190849 1.0943218e-38
0.066927537 -0.012962316 0.04479602 9.9308705e-39
0.072709888 -0.017440796 0.045613594 9.4706154e-39
-0.0216174 -0.0029233496 0.049086589 1.3640947e-38
-0.018830853 -0.0076800147 0.049029373 1.0763132e-38
0.049833797 -7.1810773e-06 0.041475907 1.1403114e-38
0.056658462 -0.003481396 0.045341168 1.0206373e-38
0.062421039 -0.0079020914 0.046035293 9.7461191e-39
-0.023941735 0.0015311508 0.049181685 1.4196996e-38
0.039704751 0.0094815046 0.04476168 1.1035779e-38
0.045869526 0.0061823037 0.046460297 1.048296e-38
0.05189633 0.0016265135 0.046828173 1.0114179e-38
0.029913876 0.019462885 0.046825103 1.1219446e-38
0.035818335 0.014646069 0.047535084 1.0943576e-38
0.041481052 0.011198664 0.047986239 1.0390763e-38
0.019526696 0.028584648 0.04962204 1.5755338e-38
0.026814792 0.023380259 0.049396865 1.0666266e-38
0.030780416 0.020489339 0.049183536 1.0758098e-38
-0.041497335 0.038336415 0.047856241 8.7491555e-39
-0.036016289 0.035701357 0.047541507 9.2104854e-39
-0.029752545 0.032481849 0.045064509 1.2258322e-38
-0.057321627 0.048674066 0.040766761 0
-0.045271724 0.044607896 0.047682561 7.8268489e-39
-0.020382518 0.049663126 0.047923442 9.2104924e-39
-0.018627021 0.045594912 0.046286758 1.0317199e-38
-0.053358417 0.054300714 0.041624848 1.8439406e-40
-0.046390157 0.056570154 0.045481328 7.9226585e-39
-0.030661017 0.059722047 0.04895059 8.1959929e-39
-0.023946166 0.056832369 0.048099998 8.4722127e-39
-0.019037737 0.053351235 0.048513521 9.0253781e-39
-0.042950191 0.062059339 0.044240166 8.2914382e-39
-0.035703845 0.064298868 0.045229293 6.3557027e-39
-0.02830033 0.061210372 0.048462249 7.9186858e-39
-0.031977836 0.07143119 0.041316833 1.4012985e-45
-0.028715653 0.072671883 0.041871734 0
0.059232872 -0.12068413 0.05326676 7.1696931e-39
0.06613747 -0.12250461 0.054643564 6.6179431e-39
0.074840069 -0.12471602 0.055387605 5.6963427e-39
0.084531441 -0.12581539 0.055505715 5.3282749e-39
0.09350989 -0.12386695 0.057750095 3.8578209e-39
0.10144253 -0.12112837 0.059168655 1.7448856e-39
0.056834258 -0.11365013 0.054648515 6.70978e-39
0.063547157 -0.11642297 0.056285087 6.0651266e-39
0.071959764 -0.11851081 0.059056189 5.3275546e-39
0.080218069 -0.1199974 0.059905339 4.1329589e-39
0.1070375 -0.11733475 0.05701546 9.2213847e-41
0.11289091 -0.11283722 0.056708977 8.3049355e-40
0.048037287 -0.10284558 0.054450817 7.1693162e-39
0.053527709 -0.10632516 0.05586651 6.8005351e-39
0.061726455 -0.10860004 0.059039213 7.3537173e-39
0.11754959 -0.10759652 0.057041585 3.6879373e-40
0.12121278 -0.10229322 0.057818588 1.9289126e-39
0.038664609 -0.09180475 0.054271538 7.906884e-39
0.044102598 -0.095690638 0.055329721 7.07568e-39
0.051169422 -0.099043243 0.058613647 7.3537215e-39
0.11985356 -0.091815852 0.05992524 4.2244328e-39
0.12479483 -0.093702659 0.056448575 4.7772577e-39
0.029287251 -0.080799162 0.054399416 8.1856443e-39
0.035097867 -0.084987774 0.055178214 7.3515453e-39
0.040864863 -0.089033283 0.0573484 7.3515523e-39
0.077993952 -0.082605302 0.059859738 5.8800011e-39
0.080952808 -0.083702311 0.059897315 5.8774718e-39
0.11919495 -0.082257599 0.059324484 4.3162697e-39
0.12565008 -0.084827982 0.055550873 5.6963385e-39
0.13022251 -0.084049895 0.051199328 7.9036414e-39
0.026499813 -0.074196503 0.055164572 7.6270517e-39
0.031285562 -0.078240059 0.05558398 7.5337729e-39
0.11761109 -0.073199987 0.057516459 4.6836173e-39
0.124123 -0.075069755 0.05500377 6.2495179e-39
0.13008492 -0.078039087 0.050592404 8.0844272e-39
0.017640743 -0.062984891 0.055170029 7.904003e-39
0.022020092 -0.067391537 0.055101216 7.7181642e-39
0.10809238 -0.062361084 0.058060296 5.1431563e-39
0.11571225 -0.064380407 0.055591401 6.3417121e-39
0.12213095 -0.066947445 0.053974327 7.6349845e-39
0.0086944159 -0.051859356 0.055343911 8.5504612e-39
0.013060316 -0.056028124 0.054942988 8.1787864e-39
0.098819964 -0.051552966 0.058122665 5.51122e-39
0.10599906 -0.054136623 0.055690844 6.7086968e-39
0.11300602 -0.05711183 0.054342017 8.0941578e-39
0.12058133 -0.059780192 0.051196627 1.3539115e-38
-0.00048126362 -0.040711131 0.057094183 9.1065272e-39
0.0048111705 -0.045204058 0.05497637 8.6397701e-39
0.010383884 -0.049776092 0.05508323 8.8198216e-39
0.08927276 -0.040802009 0.058512378 5.9700471e-39
0.096406892 -0.043720782 0.055690624 7.0767618e-39
0.10290662 -0.047293767 0.054790065 7.7232144e-39
-0.0032170773 -0.034447517 0.055454325 9.0085541e-39
0.0010624086 -0.038480874 0.054079428 9.0993036e-39
0.079414591 -0.030511448 0.059173897 6.4303162e-39
0.086573616 -0.033568427 0.055750191 7.2600755e-39
0.092762426 -0.037574135 0.054883473 7.8146898e-39
-0.011890564 -0.022919795 0.056484956 9.5635299e-39
-0.0077394946 -0.026910098 0.054584116 9.3766135e-39
0.077174492 -0.023286818 0.055651002 7.5366624e-39
0.082554139 -0.027141608 0.054814253 7.8125262e-39
-0.021003852 -0.011248849 0.058513325 1.0871139e-38
-0.015999187 -0.015507289 0.055139091 9.7479114e-39
0.067254215 -0.012620349 0.055615049 7.9965615e-39
0.072809987 -0.017019406 0.055111904 8.0894732e-39
-0.03043667 -0.00042810943 0.059744984 1.2444196e-38
-0.023610219 -0.0047466834 0.05582606 1.2443839e-38
-0.019178331 -0.008865892 0.052233901 1.030574e-38
0.057324722 -0.0027226429 0.055228695 8.7337678e-39
0.062874623 -0.0072137867 0.055121969 8.5500968e-39
-0.031803019 0.0045709484 0.058641512 1.2352359e-38
-0.027005821 0.0037860442 0.054696646 1.3090287e-38
0.04712889 0.0072150389 0.05500615 9.2862228e-39
0.052922994 0.0026243078 0.055404097 9.2880262e-39
-0.034398105 0.015090622 0.057188794 1.2997011e-38
-0.029607145 0.010472654 0.053482819 1.3367957e-38
0.036552932 0.017033489 0.054658689 9.7461177e-39
0.042683132 0.012527107 0.055907536 9.6568101e-39
-0.041732479 0.027199311 0.058127079 1.188958e-38
-0.039075036 0.022076003 0.057970326 1.2535311e-38
0.019268516 0.029020647 0.050825156 1.4373483e-38
0.026066717 0.026324704 0.055576179 1.0304311e-38
0.032103535 0.021960469 0.056141414 9.3776953e-39
-0.043387346 0.036807951 0.055291321 9.9498595e-39
-0.037954513 0.036372997 0.052109465 9.4867135e-39
0.0087267896 0.038961604 0.055576686 1.3181755e-38
0.015581705 0.035699651 0.057237539 1.2536389e-38
0.02185672 0.031474471 0.057794962 1.2167257e-38
-0.050363161 0.047073659 0.059446972 1.0319718e-38
-0.04666923 0.044533987 0.05444349 9.2112169e-39
-0.0021867962 0.048338648 0.058728371 1.2903362e-38
0.0054357219 0.043242037 0.05809937 1.308884e-38
0.011498858 0.041000556 0.058356211 1.2536383e-38
-0.050230701 0.051577661 0.059084624 1.0319369e-38
-0.046181191 0.055782396 0.054078571 9.5807252e-39
-0.035814341 0.059738446 0.054364242 9.3045293e-39
-0.023598928 0.057918008 0.053806759 9.5792763e-39
-0.017033875 0.055752873 0.055873267 1.059487e-38
-0.0069066403 0.051755194 0.059094306 1.2718619e-38
-0.043017216 0.06174494 0.054813158 9.3959668e-39
-0.034438886 0.062518157 0.054013748 9.7647578e-39
-0.027196595 0.061616417 0.055572644 9.7640305e-39
-0.018526781 0.060725749 0.059600424 1.1518996e-38
0.067445725 -0.12165155 0.06327711 8.3743432e-39
0.075404324 -0.1225296 0.064186499 7.1754413e-39
0.084924109 -0.12277821 0.064410098 5.6992238e-39
0.094053127 -0.12188038 0.064076766 4.777622e-39
0.10107128 -0.12065923 0.062655106 3.6741555e-39
0.057905558 -0.11219512 0.063295268 7.7268144e-39
0.065294385 -0.11453719 0.064590439 6.5282698e-39
0.074767657 -0.11515115 0.065524578 5.5115871e-39
0.08479514 -0.11535908 0.0665842 5.510864e-39
0.094977692 -0.11566613 0.067076638 4.7761787e-39
0.10471153 -0.11469317 0.065789387 3.6741513e-39
0.111811 -0.11180672 0.063497797 2.0211096e-39
0.048909843 -0.10144171 0.063022465 7.0785597e-39
0.055587325 -0.10448224 0.064720131 6.8034147e-39
0.064753875 -0.10525246 0.065738715 5.8792892e-39
0.074844539 -0.10504232 0.066477686 4.8672855e-39
0.084778771 -0.10488734 0.067141719 5.1427948e-39
0.094703324 -0.10492567 0.067988269 5.6019709e-39
0.10535536 -0.10523657 0.068227522 4.6836201e-39
0.11476556 -0.10455231 0.06575425 4.0418548e-39
0.12098614 -0.10142986 0.062695272 4.5946811e-39
0.039194837 -0.091129221 0.061712455 7.9094092e-39
0.046079338 -0.094268784 0.064743109 7.0792814e-39
0.054751679 -0.095555209 0.066396162 6.3395513e-39
0.064987294 -0.09528365 0.066975139 5.142792e-39
0.074971408 -0.095057406 0.066810504 4.77545e-39
0.084906034 -0.094987839 0.066970967 4.9594853e-39
0.094786324 -0.094867788 0.067524068 4.8676484e-39
0.10489748 -0.094648711 0.067978114 5.4183013e-39
0.11575552 -0.095038287 0.066626228 4.8680142e-39
0.12220575 -0.094407745 0.063937083 5.7914236e-39
0.029773768 -0.080196708 0.061459258 7.9025638e-39
0.036602922 -0.083925188 0.06464643 7.1707567e-39
0.044293329 -0.086099446 0.066832319 6.708338e-39
0.055128165 -0.085839368 0.068186365 5.694528e-39
0.065355986 -0.085190654 0.067564763 4.6836145e-39
0.075115487 -0.084998839 0.066062398 5.1435137e-39
0.084765546 -0.085072935 0.066429004 4.9605615e-39
0.095022582 -0.085070722 0.06722331 4.9594853e-39
0.10500429 -0.084845826 0.067280024 4.7754528e-39
0.11547762 -0.084847443 0.066157334 5.3271931e-39
0.1228024 -0.085151009 0.064177901 6.8059413e-39
0.027311137 -0.073219411 0.064537577 7.1696763e-39
0.033500403 -0.076536857 0.066400968 6.7083394e-39
0.043757137 -0.078042634 0.06901098 6.7987288e-39
0.056411553 -0.075974181 0.069168635 4.5917762e-39
0.065662183 -0.075326368 0.067949109 5.2349918e-39
0.075009115 -0.075336173 0.066701658 5.4201048e-39
0.084815741 -0.075288929 0.067127198 5.0516782e-39
0.095208429 -0.074963078 0.067307912 4.77545e-39
0.10515501 -0.074801825 0.066754594 5.1431549e-39
0.11495371 -0.074987508 0.064987615 5.8800123e-39
0.12227631 -0.075843811 0.063400403 8.005932e-39
0.018026773 -0.062238626 0.064448349 7.261872e-39
0.023398513 -0.066255823 0.065858737 6.8001749e-39
0.031259321 -0.069054224 0.069147155 6.7090597e-39
0.057585571 -0.066432863 0.069543175 4.9602042e-39
0.065906562 -0.065764926 0.068766937 5.6026981e-39
0.075097695 -0.065508723 0.068272658 5.4186642e-39
0.085250877 -0.065244757 0.068150237 5.0509579e-39
0.095400259 -0.064974479 0.067428291 5.3264658e-39
0.10524722 -0.064771898 0.065604314 5.9718464e-39
0.11402456 -0.065579996 0.063607484 7.8193772e-39
0.12123343 -0.06811472 0.061834451 1.0037487e-38
0.0090102525 -0.051536109 0.064273842 7.9987181e-39
0.013946713 -0.055658173 0.065377869 7.2604328e-39
0.02104437 -0.05915197 0.06887757 6.8005491e-39
0.059520289 -0.057048842 0.06997598 4.2244328e-39
0.066618167 -0.057500239 0.06949883 5.7867349e-39
0.075495198 -0.056883421 0.069205366 5.5104969e-39
0.085900925 -0.055360846 0.068680182 5.326463e-39
0.0958177 -0.054618381 0.066409841 5.6952581e-39
0.10426504 -0.055504192 0.064438023 7.5413455e-39
0.11164743 -0.058220297 0.062716246 9.8494817e-39
-0.00038038436 -0.040633883 0.063133806 8.0930858e-39
0.0052680303 -0.04515487 0.065070063 7.3511837e-39
0.010855721 -0.049129292 0.067154206 7.1682428e-39
0.049082201 -0.044822764 0.069462687 4.9623776e-39
0.051011194 -0.045106072 0.06948974 5.1464045e-39
0.079363838 -0.04230278 0.069483608 4.4999407e-39
0.086699657 -0.04402994 0.067078799 5.4193901e-39
0.09468738 -0.045467675 0.064983904 7.1714798e-39
0.10170361 -0.048270445 0.063388743 8.5554961e-39
-0.0036243433 -0.034345135 0.064713798 7.5348561e-39
0.001224244 -0.038775742 0.066002764 7.4426605e-39
0.07783401 -0.032983605 0.067418195 5.694898e-39
0.084904589 -0.035166636 0.065154128 7.0785625e-39
0.091716893 -0.038195718 0.063211627 9.3892252e-39
-0.012468244 -0.023157317 0.064837031 7.90364e-39
-0.0082818996 -0.027722821 0.065430529 7.6263315e-39
0.068777956 -0.021645604 0.068119079 6.062963e-39
0.075493157 -0.024642844 0.065352723 6.8930922e-39
0.081892751 -0.027901774 0.06347277 8.0948808e-39
-0.021398619 -0.011880733 0.064990595 7.9093826e-39
-0.017296977 -0.01633372 0.064873859 7.9043589e-39
0.059123021 -0.010986289 0.068436511 6.4303106e-39
0.066049956 -0.014179996 0.065472677 7.0767618e-39
0.071967408 -0.017766293 0.064179674 7.7242948e-39
-0.071448699 -0.00079199526 0.068306528 1.1335323e-38
-0.065005541 -0.0039266245 0.067929864 1.0965458e-38
-0.05400306 -0.0043403301 0.069127001 1.0226107e-38
-0.045291219 -0.0027529462 0.068677969 1.1055134e-38
-0.032876894 -0.00094545301 0.066748507 9.5771491e-39
-0.025799869 -0.0054911575 0.065000162 9.020395e-39
0.049573354 -0.00035367487 0.069147043 8.1816717e-39
0.056577627 -0.0038662164 0.06553831 7.2604342e-39
0.062305849 -0.0076933983 0.064434066 7.8150485e-39
-0.074129194 0.0043148762 0.068467066 1.2074329e-38
-0.069594771 0.00056437601 0.068585292 1.0135314e-38
-0.052328587 0.00063681672 0.069818318 6.6250883e-39
-0.042892575 0.00086496765 0.069375917 9.5771407e-39
-0.033631779 0.0023318594 0.065706395 9.9466505e-39
-0.029159918 0.00083063688 0.063419364 1.0778938e-38
0.046874791 0.0066425446 0.065528132 7.4433836e-39
0.052517101 0.0023397256 0.064673677 7.6284923e-39
-0.078022666 0.011303425 0.06950406 1.2628219e-38
-0.040043842 0.019718636 0.063147195 1.3918244e-38
-0.036486793 0.016128881 0.061120469 1.3089204e-38
0.0373029 0.017019931 0.065299943 7.8114444e-39
0.042495109 0.012576561 0.064900905 7.6274105e-39
-0.04398733 0.026177041 0.06323126 1.2258361e-38
-0.039280325 0.021083051 0.061486728 1.2720057e-38
0.026928009 0.0271817 0.064798094 8.6440763e-39
0.032697979 0.022561934 0.065091319 7.9032785e-39
-0.051567033 0.037465394 0.066162065 1.1796662e-38
-0.048126832 0.033935171 0.063238285 1.1611907e-38
0.016646616 0.036836453 0.064798757 1.0406202e-38
0.022482349 0.032224327 0.065240584 9.4806599e-39
-0.053182691 0.044880487 0.06516587 1.1242763e-38
-0.049254283 0.041586127 0.06086649 1.0688859e-38
-0.0018561137 0.048511207 0.060932569 1.373349e-38
0.0077238609 0.044597544 0.065127589 1.1422494e-38
0.012423537 0.042117912 0.06614434 1.0591305e-38
-0.053478185 0.054745406 0.066116385 1.142788e-38
-0.048974641 0.05735831 0.061374333 1.1611539e-38
-0.013685089 0.05768799 0.061878618 1.2257275e-38
-0.0074073747 0.053114962 0.061179742 1.2903366e-38
0.018824657 0.051435597 0.069354162 1.1331729e-38
0.021453595 0.055215593 0.069445677 1.1239162e-38
-0.051569156 0.062367722 0.068114668 1.1612999e-38
-0.045693979 0.06545151 0.065702707 1.1704826e-38
-0.034365069 0.06785351 0.064786784 1.1612265e-38
-0.024708392 0.066102967 0.06507916 1.1796293e-38
-0.017733024 0.062477499 0.064868391 1.234947e-38
0.024834778 0.06577827 0.069426589 1.1517194e-38
-0.042166956 0.07035502 0.069232292 1.1705193e-38
-0.035114586 0.070611589 0.068489641 1.1981417e-38
-0.028575081 0.070433423 0.068740301 1.2165803e-38
0.019737879 0.079229861 0.069269493 1.3179583e-38
0.022559496 0.074632712 0.069083579 1.2717523e-38
0.015105422 0.084083423 0.069628417 1.4195186e-38
0.076881096 -0.12138382 0.070907965 9.3917545e-39
0.085098438 -0.12136769 0.071336709 7.5460385e-39
0.09254586 -0.12078067 0.071835585 5.6102778e-39
0.059418969 -0.11026166 0.070057921 7.080366e-39
0.067171231 -0.11245228 0.070922762 6.9874543e-39
0.075684503 -0.11392125 0.071942933 5.6963441e-39
0.08536645 -0.11432768 0.073037528 5.7870978e-39
0.094749399 -0.11415767 0.07319703 5.6041471e-39
0.10369967 -0.11245149 0.072528563 4.8691002e-39
0.11040351 -0.1107591 0.07163433 1.3775521e-39
0.049722873 -0.1001233 0.070732497 6.245562e-39
0.056648519 -0.10221375 0.071011864 7.0810876e-39
0.065556876 -0.10406845 0.071682431 6.8005393e-39
0.075264737 -0.10496698 0.072329693 5.4190286e-39
0.085349075 -0.10502894 0.073673993 4.9594895e-39
0.095070168 -0.10505296 0.074286669 5.6026967e-39
0.10461474 -0.10468005 0.073851518 5.7870964e-39
0.11259994 -0.1034575 0.072233215 5.421195e-39
0.047193222 -0.093012571 0.071559794 8.0981192e-39
0.055550389 -0.094311714 0.072535105 6.3409975e-39
0.064775504 -0.095054552 0.072339416 6.1544384e-39
0.074908897 -0.095430911 0.072012067 5.8792906e-39
0.085506409 -0.095523193 0.072593287 5.1435207e-39
0.095131449 -0.095197313 0.073913999 4.8676526e-39
0.10491072 -0.095258132 0.073612727 5.6945336e-39
0.11380365 -0.095020331 0.072652765 6.155523e-39
0.12073871 -0.093003459 0.070894316 8.1932001e-39
0.037776273 -0.082673088 0.072225444 7.7278878e-39
0.045596782 -0.084377512 0.073254377 6.4335532e-39
0.054854475 -0.084933579 0.073434636 6.154437e-39
0.064524852 -0.084983841 0.072218791 5.786009e-39
0.073302485 -0.085993178 0.07122165 5.602331e-39
0.086444803 -0.085479721 0.071662702 5.5115843e-39
0.095371857 -0.085194692 0.073087886 5.511227e-39
0.10465295 -0.085345186 0.072914809 5.0513208e-39
0.11380389 -0.085747033 0.071853265 6.3391926e-39
0.12108377 -0.086668357 0.070699342 8.9278981e-39
0.028204484 -0.071910255 0.072695382 7.2651062e-39
0.035622824 -0.074190296 0.073756002 6.4335504e-39
0.045018833 -0.074940592 0.074737005 5.9704045e-39
0.054809395 -0.074917465 0.073629156 5.5105011e-39
0.064714037 -0.074747667 0.072679758 5.8782074e-39
0.074346051 -0.074001312 0.071911633 6.3391828e-39
0.085773669 -0.07417088 0.072130181 5.0520411e-39
0.095030241 -0.075117514 0.072999589 5.4193901e-39
0.10458373 -0.075398333 0.071909457 5.8778487e-39
0.11240812 -0.076634966 0.071132734 6.6168599e-39
0.12060514 -0.078818575 0.070133522 1.243672e-38
0.018789541 -0.061429497 0.072438031 7.0792758e-39
0.025682004 -0.064230807 0.074284673 6.5264635e-39
0.034884557 -0.065200865 0.075805292 6.0626015e-39
0.045087613 -0.06505134 0.075634323 5.4183027e-39
0.054958854 -0.064907663 0.074133076 5.3268301e-39
0.064863235 -0.064743221 0.073284887 5.9704059e-39
0.074994832 -0.064460285 0.073221549 5.694535e-39
0.084934011 -0.064765558 0.073503278 5.1427976e-39
0.094883397 -0.064828582 0.072381593 5.7863705e-39
0.10310246 -0.065800264 0.0713237 7.16824e-39
0.11075506 -0.068830587 0.070342831 9.1998061e-39
0.0093654366 -0.050699808 0.071682215 7.7246564e-39
0.016088311 -0.054220002 0.074524708 6.5257419e-39
0.024610011 -0.05559957 0.076544248 6.246997e-39
0.035116803 -0.055380486 0.077147171 5.5104955e-39
0.04518659 -0.055153154 0.076068483 4.9598441e-39
0.055207681 -0.055044256 0.074715436 5.5112242e-39
0.065045111 -0.054894295 0.074584998 5.5108626e-39
0.074854419 -0.055084135 0.074535504 5.1427962e-39
0.084894143 -0.054986455 0.073651828 5.8782046e-39
0.09396778 -0.055549521 0.072551288 7.0764031e-39
0.10140501 -0.057353612 0.070684619 8.8313697e-39
0.0068960646 -0.04380573 0.074659571 6.5246629e-39
0.014331609 -0.045972683 0.076914564 6.5235853e-39
0.024663595 -0.046048634 0.078464955 6.1540727e-39
0.035503775 -0.045593888 0.078194283 4.7754514e-39
0.045523528 -0.045071401 0.075832285 5.0542047e-39
0.054948397 -0.045195285 0.075549141 5.0538446e-39
0.064968556 -0.045269504 0.075816467 5.0509593e-39
0.075071201 -0.045074802 0.07524462 5.7863663e-39
0.084440298 -0.045364492 0.073682144 6.6157809e-39
0.093008451 -0.046373207 0.071555622 7.910128e-39
0.10051973 -0.049043618 0.070225008 6.984555e-39
-0.0025332964 -0.033054434 0.074440464 6.709417e-39
0.003955611 -0.036203001 0.076677978 6.2477172e-39
0.014485276 -0.03616821 0.078933656 5.8792822e-39
0.024449041 -0.035986982 0.079598077 6.0615057e-39
0.035941135 -0.036753897 0.079282992 5.1427906e-39
0.045761101 -0.036118984 0.078050785 5.2353506e-39
0.05521312 -0.035499305 0.077516846 4.9594811e-39
0.065182418 -0.035184085 0.077008046 5.6023338e-39
0.074960873 -0.035008911 0.074902289 6.1551615e-39
0.083201319 -0.036134098 0.07247442 7.9108455e-39
0.090837799 -0.039488308 0.070990078 1.1237459e-38
-0.011920368 -0.022175202 0.074114151 6.8005295e-39
-0.0065323776 -0.026220944 0.075965039 6.0636847e-39
0.0031102819 -0.029030427 0.079229802 6.6150606e-39
0.016511261 -0.026476178 0.079694837 4.0411234e-39
0.023976255 -0.023530954 0.079563506 4.0411304e-39
0.03466757 -0.02550808 0.079880372 5.8778403e-39
0.046631087 -0.026216639 0.079442292 5.2346247e-39
0.055827137 -0.025127625 0.078583866 5.3264644e-39
0.065586708 -0.024590503 0.07615719 6.0629658e-39
0.073452681 -0.026119107 0.073887371 6.9870843e-39
0.080648474 -0.029082704 0.071810178 1.2623632e-38
-0.021245448 -0.011638712 0.074166641 6.4313798e-39
-0.01605019 -0.015817847 0.075551197 6.3391898e-39
-0.0092890235 -0.019054979 0.079278588 5.1446025e-39
0.018175287 -0.014664667 0.079059921 4.4084654e-39
0.023916334 -0.014993551 0.079060987 4.0407632e-39
0.034230668 -0.014405928 0.079781458 3.4897517e-39
0.046925083 -0.01373552 0.079514079 5.3268273e-39
0.056288574 -0.014279506 0.076980166 5.879292e-39
0.063987628 -0.015830114 0.074507974 6.8938083e-39
0.070677459 -0.018824026 0.0718126 9.2963009e-39
-0.07143674 -0.0011164729 0.072718948 9.6729335e-39
-0.064259626 -0.0028145721 0.073053353 9.7665921e-39
-0.054972108 -0.0030549357 0.073138952 9.5811218e-39
-0.046325594 -0.0023240203 0.07228446 1.1241731e-38
-0.032568309 -0.00076999509 0.073267072 7.4469569e-39
-0.025187686 -0.0052220379 0.075282834 6.6154137e-39
-0.019216526 -0.009131019 0.078270338 6.5239426e-39
0.019682538 -0.0096171703 0.079487562 4.0407646e-39
0.025246747 -0.0088646468 0.079657383 4.6836117e-39
0.037776355 -0.0058097006 0.079732463 4.2255174e-39
0.04680771 -0.0038461336 0.077751957 5.7874551e-39
0.054584071 -0.0054661031 0.074933879 6.9860039e-39
0.061121084 -0.0087731136 0.072870404 7.7242864e-39
-0.073727757 0.0058098603 0.0742613 8.658427e-39
-0.064498261 0.0053533339 0.075168632 7.825065e-39
-0.055114571 0.0050226874 0.075419933 8.0076486e-39
-0.045287181 0.0053039854 0.07443624 8.100217e-39
-0.03515657 0.0049012043 0.07511732 7.7260675e-39
-0.028757419 0.0015555423 0.076991759 6.7068891e-39
0.038228206 0.007239393 0.078208394 6.1548027e-39
0.045072965 0.0049896296 0.075291649 6.8008938e-39
0.051577553 0.0017102672 0.073592722 7.8175625e-39
-0.082127772 0.016601412 0.075653218 9.3048628e-39
-0.074453115 0.014937225 0.076718092 7.8261468e-39
-0.064888299 0.014743976 0.076950833 7.8236175e-39
-0.054979049 0.014918406 0.076791547 7.8228986e-39
-0.045073759 0.014962917 0.076407939 7.5437978e-39
-0.037571371 0.013402668 0.077043861 7.0785205e-39
0.028884664 0.018743925 0.078768075 6.7994603e-39
0.035820827 0.015430411 0.07556013 6.8005323e-39
0.041817386 0.012016154 0.073754676 7.2625866e-39
-0.084332146 0.025038375 0.07758899 8.3814674e-39
-0.074939318 0.024626991 0.077966936 7.6395864e-39
-0.064784333 0.0245864 0.077951871 7.5466691e-39
-0.054853834 0.024703436 0.077386715 7.5455929e-39
-0.046840362 0.023382092 0.07730756 7.1735832e-39
-0.039565846 0.021038363 0.079628907 6.8883923e-39
0.019140195 0.029185634 0.078867614 7.1668037e-39
0.026006673 0.026048003 0.075868174 6.799812e-39
0.031901807 0.022039576 0.07409624 6.8920048e-39
-0.083506793 0.033417847 0.078653075 7.8264943e-39
-0.074952267 0.034603979 0.078636192 7.6395836e-39
-0.06486553 0.034486473 0.078701697 7.7306974e-39
-0.056009963 0.033811364 0.078137554 7.7289037e-39
-0.0492916 0.030959934 0.079330564 6.2491367e-39
0.0090419203 0.039294522 0.079848185 7.9022079e-39
0.016588664 0.036376949 0.075730875 6.7072534e-39
0.022069495 0.031995896 0.074383833 6.7076108e-39
-0.0831431 0.042207185 0.079533778 1.0781071e-38
-0.073220506 0.043902535 0.079068236 7.8250566e-39
-0.06504485 0.044464096 0.07918255 7.7306974e-39
-0.057098273 0.043911934 0.075839274 9.3001811e-39
-0.0014657397 0.048743568 0.077971525 7.5348253e-39
0.0062934509 0.046820275 0.07642594 7.7260577e-39
0.012821844 0.044799604 0.074393123 8.4647059e-39
-0.072219916 0.051582526 0.078971528 9.3066747e-39
-0.0645191 0.054827724 0.079249673 8.9353698e-39
-0.056976337 0.056569297 0.074062482 1.0872184e-38
-0.011141705 0.05880481 0.079146452 7.351869e-39
-0.00386653 0.055725496 0.077741466 7.7256751e-39
0.0051910724 0.054962829 0.076852299 7.8207406e-39
0.014701038 0.055326402 0.075331323 8.3778885e-39
0.021616435 0.057025358 0.073330045 1.1148438e-38
-0.061585542 0.061379686 0.079317808 7.1880067e-39
-0.054155126 0.064527966 0.07579533 1.0966183e-38
-0.047604829 0.068613529 0.073350586 1.1150576e-38
-0.035700891 0.06973169 0.070457026 1.1704104e-38
-0.024143167 0.068788677 0.072817326 1.1609032e-38
-0.013325366 0.065649502 0.078766465 8.0040557e-39
-0.0046932274 0.064706244 0.077944949 8.0065682e-39
0.0052781561 0.064852856 0.077200301 8.0991212e-39
0.014988872 0.064868532 0.076516464 8.0994827e-39
0.022765363 0.065153785 0.073931329 9.6722272e-39
-0.050833531 0.070634067 0.078626126 9.7687333e-39
-0.044499561 0.072582141 0.07645569 1.0874348e-38
-0.035239693 0.072655573 0.073779739 1.1149496e-38
-0.024877246 0.075086698 0.078057632 8.9310496e-39
-0.014226322 0.075151309 0.079115674 7.9150914e-39
-0.0045850496 0.074904919 0.078225419 7.9150914e-39
0.0052978108 0.074904606 0.077350348 8.1916783e-39
0.014569625 0.074544817 0.07653825 7.916539e-39
0.022173468 0.074515179 0.073743165 9.9487889e-39
-0.040802147 0.080376267 0.079361849 5.8039779e-39
-0.03421323 0.083517969 0.079322129 7.0936293e-39
-0.024125744 0.084736466 0.079195626 7.7317834e-39
-0.014746679 0.085228339 0.078739032 7.9150886e-39
-0.0048212488 0.084919557 0.078182332 8.0998386e-39
0.0052250768 0.084513158 0.077534534 8.3785933e-39
0.013972496 0.083667301 0.075411648 9.9487931e-39
0.02044788 0.080512017 0.07533443 9.3966927e-39
-0.022287464 0.093060665 0.079383768 8.3814772e-39
-0.014212111 0.093308888 0.078776054 8.3785891e-39
-0.005451106 0.093807615 0.078531146 8.9328377e-39
0.0039866222 0.092291862 0.077251181 1.0779982e-38
-0.012404273 0.10035248 0.079365827 1.2072514e-38
-0.0082960026 0.10045163 0.079457566 1.0872526e-38
0.09540537 -0.10534275 0.08023873 6.5225063e-39
0.10131758 -0.10507312 0.080286279 6.2469984e-39
0.096883021 -0.098011896 0.080106109 5.4183027e-39
0.0378608 -0.071486883 0.080842815 6.4342763e-39
0.042806037 -0.073561303 0.080495283 7.1704078e-39
0.028460521 -0.061558511 0.081621267 5.3279161e-39
0.034977853 -0.0640506 0.081657186 6.0640462e-39
0.04230243 -0.064931348 0.08077126 6.5214287e-39
0.016649198 -0.052142788 0.081245802 5.4204663e-39
0.025716444 -0.054044198 0.08248882 5.695621e-39
0.034293231 -0.054871488 0.081921063 5.9700443e-39
0.042082567 -0.05501464 0.080808558 5.2346345e-39
0.067267515 -0.051449183 0.080561385 4.5917804e-39
0.073966779 -0.053246707 0.080805615 5.3275504e-39
0.080845423 -0.057655819 0.080270693 6.3388381e-39
0.0079655414 -0.04287288 0.081473865 6.2491508e-39
0.016032979 -0.044150367 0.083215773 5.8796522e-39
0.024836849 -0.044561572 0.084009357 5.6026995e-39
0.034277186 -0.044529714 0.082752034 5.1427948e-39
0.043220885 -0.043638948 0.08111354 4.7765332e-39
0.05627374 -0.042622238 0.081286639 4.7754542e-39
0.064679176 -0.04479396 0.081606187 4.9591252e-39
0.07252121 -0.044907182 0.081097223 6.340273e-39
0.081404164 -0.042470068 0.080348179 8.0956081e-39
-0.0016463036 -0.031767711 0.082358129 5.4193845e-39
0.0060839853 -0.03386388 0.082999267 5.6959784e-39
0.015173303 -0.034862541 0.084442906 5.3275462e-39
0.024958702 -0.034956679 0.084959142 5.7856433e-39
0.034770321 -0.034722734 0.08461944 5.2346317e-39
0.044757675 -0.03408733 0.083353907 4.8672883e-39
0.054617148 -0.034617864 0.082644381 4.6836159e-39
0.064569585 -0.034465656 0.081476286 6.0629602e-39
0.072664492 -0.035525028 0.081034303 6.8026987e-39
-0.01088733 -0.020972904 0.082480647 5.3271875e-39
-0.0042907023 -0.023987509 0.084313661 5.6037827e-39
0.0050207376 -0.02499623 0.085159101 5.9707674e-39
0.014990549 -0.025175046 0.083900526 4.3166313e-39
0.025193926 -0.025255354 0.084516518 4.3162697e-39
0.034975253 -0.024942612 0.085044175 5.6941679e-39
0.044927869 -0.024895791 0.084847204 5.3268259e-39
0.054551207 -0.024773518 0.083032265 5.8785676e-39
0.063336372 -0.025903571 0.081832461 6.5239468e-39
0.070534877 -0.029226584 0.080473676 5.694898e-39
-0.020553485 -0.010738466 0.082091987 4.7754486e-39
-0.013810697 -0.013957281 0.084651694 5.512306e-39
-0.0055211429 -0.015794095 0.086799145 5.695621e-39
0.0054627149 -0.015711794 0.087327249 5.6026995e-39
0.014910366 -0.01488125 0.084705696 4.3162683e-39
0.025079912 -0.014909143 0.082922786 4.4081052e-39
0.03521084 -0.015261061 0.084460057 4.2244342e-39
0.044996466 -0.015133123 0.084720746 5.9700359e-39
0.053792927 -0.015781913 0.083172478 6.430668e-39
0.062772989 -0.016067903 0.080964245 5.6037743e-39
-0.030033397 -0.00096028403 0.080735959 6.8898482e-39
-0.023288514 -0.0037620943 0.084455416 5.3286336e-39
-0.015870091 -0.0059840516 0.08702226 5.5123116e-39
-0.005462647 -0.0056371465 0.08899276 5.6030625e-39
0.0053856433 -0.0058859675 0.089102648 5.1427906e-39
0.015891571 -0.0060094832 0.086999021 4.4081038e-39
0.024969235 -0.0051839934 0.08541479 4.3162697e-39
0.034993276 -0.0049823499 0.084501252 5.051681e-39
0.044163078 -0.00570828 0.083331928 5.6956182e-39
0.05317973 -0.0070261536 0.081273869 6.6168599e-39
0.060133018 -0.0098364865 0.080992065 5.0509523e-39
-0.061841838 0.0082468186 0.080891572 8.6537411e-39
-0.057650819 0.0077584009 0.080551431 8.8381351e-39
-0.032612666 0.0070018317 0.084089994 5.7885341e-39
-0.026168337 0.0041492023 0.08651451 5.2364408e-39
-0.015161607 0.0041737282 0.089219525 5.1449626e-39
-0.0048722741 0.0054422999 0.08883027 1.2885864e-39
0.0045730663 0.0057301633 0.089007333 1.1031134e-39
0.015777027 0.0048832977 0.088962406 5.142792e-39
0.025579197 0.0048545538 0.087285765 5.6945364e-39
0.034759991 0.0049161017 0.084965311 5.8792934e-39
0.043003567 0.0041160202 0.08235722 6.3409891e-39
0.050562378 0.00047717578 0.080252305 6.8034007e-39
-0.083027571 0.017463639 0.080652274 7.17646e-39
-0.073269241 0.017591968 0.081279583 8.3786017e-39
-0.064844921 0.015864152 0.081493884 8.5615455e-39
-0.05622917 0.015488536 0.08091639 8.6537481e-39
-0.042747755 0.017297974 0.083390847 5.9732729e-39
-0.035749514 0.014638289 0.085509203 5.7874481e-39
-0.027632752 0.012233179 0.088911809 5.4193929e-39
-0.012938404 0.011906262 0.089510046 2.8487081e-39
-0.0039074495 0.013581826 0.088665247 2.1205163e-39
0.0048814281 0.01467278 0.088850148 1.1971139e-39
0.015627773 0.015601593 0.088692926 5.694898e-39
0.02561597 0.015437355 0.086376749 5.9711303e-39
0.033433355 0.013935829 0.083879367 5.9722051e-39
0.0409736 0.011065374 0.081591062 6.7122799e-39
-0.083610751 0.026506519 0.082022868 8.1949321e-39
-0.074719958 0.025460908 0.082727335 8.3778731e-39
-0.065334573 0.025256943 0.08232592 8.3775157e-39
-0.054685712 0.025955096 0.082260936 7.3597793e-39
-0.045216355 0.024831584 0.085127421 5.8796354e-39
-0.038193125 0.022115784 0.087268531 5.8782032e-39
-0.0015901609 0.022683969 0.089577839 1.6552081e-39
0.0063399258 0.024730321 0.089200884 4.9609329e-39
0.015925014 0.025565447 0.087116793 5.7874579e-39
0.023964088 0.02410461 0.084567808 5.6959784e-39
0.030903636 0.020988358 0.08186584 5.5115773e-39
-0.0828503 0.034311842 0.082393736 8.0116185e-39
-0.074730292 0.034949973 0.083364882 8.2856788e-39
-0.06508369 0.035111889 0.083238564 8.1002086e-39
-0.054614939 0.035158776 0.084491737 6.4349559e-39
-0.047861572 0.03330015 0.086966679 5.878199e-39
-0.0010207966 0.038351756 0.089431658 6.7061758e-39
0.0065798168 0.036125071 0.087491363 5.695621e-39
0.014326057 0.034224685 0.08502508 5.5119473e-39
0.02107968 0.031026978 0.08265014 5.8796466e-39
-0.082424842 0.042272225 0.081570864 9.7658508e-39
-0.07370653 0.043852106 0.082889318 8.2878508e-39
-0.06478852 0.044923551 0.083525762 7.9158187e-39
-0.055616025 0.044960577 0.085663393 6.3416827e-39
-0.048985396 0.044210922 0.089097388 6.1540755e-39
-0.011102994 0.048977334 0.089637741 7.4408626e-39
-0.0032579824 0.046891607 0.086632073 6.3381038e-39
0.0045046052 0.044718426 0.08493413 5.7881698e-39
0.011269333 0.04139768 0.082725294 5.6030569e-39
-0.072268605 0.051071227 0.08164645 9.119394e-39
-0.063625686 0.053646076 0.08280836 7.733954e-39
-0.055426024 0.054951582 0.085810393 6.3438421e-39
-0.048983321 0.056515783 0.0887402 6.619364e-39
-0.021888662 0.059293237 0.089372925 6.8887692e-39
-0.013123902 0.057034686 0.086646728 6.4299337e-39
-0.005239327 0.054900993 0.084791996 5.9721883e-39
0.0028416289 0.054214686 0.082048617 6.3438351e-39
0.011376429 0.057958052 0.080121569 8.2842509e-39
-0.060898941 0.061181493 0.081217922 8.0148625e-39
-0.053860798 0.064022258 0.084505498 6.4410698e-39
-0.045738615 0.066222019 0.087023512 5.7928291e-39
-0.034911498 0.067402035 0.087141551 6.0636693e-39
-0.024264067 0.066675782 0.086417869 6.0629434e-39
-0.014980791 0.065049879 0.085021302 6.3416813e-39
-0.0057657142 0.064760931 0.082989961 6.9902723e-39
0.0044312109 0.06544634 0.081472665 7.8221812e-39
0.013395396 0.066204123 0.080879375 8.4679107e-39
-0.051261727 0.07093209 0.081472859 7.7386357e-39
-0.043972611 0.072888866 0.084006369 6.9945981e-39
-0.034555502 0.07445056 0.084780343 6.8069656e-39
-0.024916343 0.074834339 0.084839761 7.267934e-39
-0.015270677 0.074992403 0.084398091 7.8221812e-39
-0.0053648464 0.075230353 0.083231427 8.0069325e-39
0.0047317897 0.075233184 0.082262643 8.0991268e-39
0.012640112 0.074199587 0.081327379 8.007657e-39
-0.040571507 0.080583356 0.080422476 1.0689608e-38
-0.033121563 0.082410678 0.082141288 8.1038127e-39
-0.024308039 0.084166549 0.083631523 8.0087346e-39
-0.014974189 0.084922068 0.084427312 8.1924e-39
-0.0053055626 0.085104942 0.083979145 8.2842355e-39
0.0035425986 0.083967522 0.082711056 7.8239846e-39
0.012083063 0.083350286 0.080794714 7.0842686e-39
-0.022640737 0.093209371 0.082248412 8.7495409e-39
-0.014717441 0.093772456 0.082956366 8.2863991e-39
-0.0058407672 0.093662277 0.082819164 8.1020064e-39
0.0027591225 0.092829928 0.081242353 8.2856788e-39
-0.012645963 0.10062553 0.082309529 9.3952452e-39
-0.0085126041 0.10043422 0.08243902 9.4867303e-39
0.018453976 -0.040856183 0.090492375 7.6346286e-39
0.023481404 -0.041076068 0.090663977 6.3395471e-39
0.03150332 -0.04004373 0.090452671 5.8774718e-39
0.01778131 -0.035470378 0.091650583 6.4295749e-39
0.025262764 -0.035567027 0.091948651 6.2459068e-39
0.033442829 -0.032859374 0.09194766 5.6023394e-39
0.040634625 -0.030837661 0.09083607 5.8782102e-39
-0.0019787173 -0.021258108 0.091267318 4.8680128e-39
0.0036754571 -0.023137091 0.091538519 4.9598441e-39
0.018552035 -0.028763983 0.090857513 5.6948924e-39
0.025577972 -0.025987081 0.091305993 5.7856405e-39
0.035974026 -0.025795948 0.092071868 5.9700373e-39
0.043040108 -0.023914089 0.091826476 5.6023352e-39
-0.013253507 -0.013538623 0.090934776 4.4088269e-39
-0.0034872175 -0.01391879 0.092661403 5.2364408e-39
0.0046263873 -0.014059717 0.092747994 5.3275532e-39
0.012042729 -0.012320666 0.091544054 3.9489277e-39
0.036109909 -0.017368464 0.090979263 5.7856377e-39
0.043976199 -0.016411951 0.091621689 6.1533482e-39
0.051572338 -0.015243696 0.090480767 8.737358e-39
-0.022288548 -0.0025090035 0.091269076 4.5935839e-39
-0.013897906 -0.003696186 0.092236072 4.9605741e-39
-0.0047884933 -0.0048475591 0.093607873 5.2368037e-39
0.0052190362 -0.0050012181 0.094037071 5.1435193e-39
0.014241179 -0.0041727163 0.093618013 4.7758129e-39
0.023341032 -0.0022978187 0.091536775 4.5925007e-39
0.034460768 -0.00091234414 0.090846308 4.6839732e-39
-0.031233849 0.0084158098 0.091566198 4.961286e-39
-0.02412991 0.0064224638 0.092890888 5.052767e-39
-0.014962886 0.0055665388 0.093976505 4.4099199e-39
-0.0051331739 0.0052306778 0.093623199 1.4722602e-39
0.0052401391 0.0048982836 0.093672805 1.9296328e-39
0.015002536 0.0049874485 0.094184034 5.1438808e-39
0.02429142 0.0053833341 0.092951939 5.8800137e-39
0.032426771 0.0040237037 0.091534846 5.0527628e-39
-0.04103085 0.018963182 0.09157373 5.6966944e-39
-0.033571705 0.016246907 0.093173034 5.5123046e-39
-0.024803661 0.015166819 0.094950534 5.4193915e-39
-0.015082051 0.014611132 0.095373638 4.2255188e-39
-0.0051242406 0.015143442 0.094758056 9.2052417e-40
0.0049213669 0.015298584 0.093556747 1.2882291e-39
0.015058253 0.014880329 0.093548857 5.1449668e-39
0.023614008 0.014208097 0.092309587 5.3282763e-39
0.031146398 0.013600352 0.090954527 4.4084654e-39
-0.050536893 0.028874172 0.091534168 5.4190272e-39
-0.043602932 0.026285568 0.093287043 5.4193873e-39
-0.034907423 0.024964342 0.095038235 5.511227e-39
-0.025539365 0.024148272 0.096664965 5.4201005e-39
-0.014811183 0.023967424 0.097019531 6.9023913e-39
-0.0044540968 0.02493207 0.09533301 4.2269538e-39
0.0047562923 0.025032109 0.094456643 4.6861453e-39
0.013799621 0.024111763 0.092848703 5.1446067e-39
0.02304681 0.023326609 0.091101632 4.5925007e-39
-0.051859669 0.036350213 0.092916586 5.5119459e-39
-0.044890571 0.035062537 0.094929487 5.5112256e-39
-0.035759401 0.034227803 0.096982405 5.4193845e-39
-0.025935961 0.033709701 0.098293461 7.084979e-39
-0.013841338 0.035838012 0.09646602 6.2523611e-39
-0.0047069215 0.035125509 0.095392473 5.5112242e-39
0.0042648981 0.034483507 0.09391211 5.3282763e-39
0.01270201 0.033167377 0.091548212 4.6843376e-39
-0.052752141 0.045361649 0.09373185 5.3279133e-39
-0.045908488 0.044714671 0.09593837 5.4193887e-39
-0.036439616 0.043527763 0.098440312 6.5307375e-39
-0.02379005 0.046184227 0.09706334 6.6232918e-39
-0.014591338 0.045377303 0.096024662 5.7867307e-39
-0.0054328884 0.044767134 0.094524369 5.5112256e-39
0.0027704341 0.042953543 0.092638686 5.3279105e-39
-0.052823234 0.054662272 0.093957141 5.3297084e-39
-0.046524756 0.055305846 0.095883906 6.2570429e-39
-0.033540033 0.056813926 0.0969752 6.809481e-39
-0.024576513 0.05551691 0.096136518 5.6956126e-39
-0.015140314 0.05498806 0.094952926 5.6027023e-39
-0.0073514152 0.05343527 0.093122393 5.2353548e-39
-0.05157489 0.061885085 0.092877895 5.8864597e-39
-0.044513315 0.064268723 0.094535165 6.9049122e-39
-0.034901287 0.064945541 0.094945475 5.514094e-39
-0.025137499 0.064418763 0.094549537 5.3271931e-39
-0.01664234 0.062858641 0.093298838 5.3271917e-39
-0.0093733035 0.06111256 0.091041684 5.8778515e-39
-0.041730091 0.07067892 0.091949932 5.8803626e-39
-0.034815356 0.071528621 0.09224546 5.788167e-39
-0.02546189 0.072453104 0.091626972 6.4342385e-39
-0.019167814 0.0737653 0.090376914 7.0817505e-39
-0.020295106 0.080196202 0.090449676 8.0984107e-39
-0.015949741 0.083434664 0.09020108 7.9150956e-39
-0.0099711725 0.08752162 0.09026552 8.4661142e-39
-0.015558664 0.0094788065 0.10018092 3.9547137e-39
-0.030772667 0.019924153 0.10011061 5.7888817e-39
-0.02260834 0.017641939 0.10344344 5.7971311e-39
-0.015012963 0.016659455 0.10404243 5.6131028e-39
-0.0065227197 0.017622732 0.10345962 4.9663125e-39
0.00089888694 0.01961102 0.10001601 4.6839873e-39
-0.041437056 0.029658012 0.1001287 5.0509523e-39
-0.032133605 0.027547909 0.10317698 5.8875303e-39
-0.024966957 0.024974925 0.10470372 5.9825944e-39
-0.016395975 0.022415167 0.10435311 6.1673359e-39
-0.0050631948 0.025237693 0.10426519 6.0733593e-39
0.0018430675 0.026470363 0.10087072 6.160925e-39
-0.041955914 0.037536409 0.10324908 5.8857394e-39
-0.034737933 0.035174835 0.10463081 5.7964136e-39
-0.02742384 0.032616425 0.10479432 6.16698e-39
-0.013614078 0.036678541 0.10475165 5.8893211e-39
-0.0062831277 0.034303129 0.10436156 5.7045753e-39
0.0011653926 0.031606801 0.10082019 5.6999399e-39
-0.050469853 0.047484647 0.1007072 5.5169569e-39
-0.043993291 0.045408767 0.10436447 5.6120238e-39
-0.037103217 0.043239783 0.10465235 5.7967668e-39
-0.023098167 0.046678323 0.10469281 6.0737124e-39
-0.015618995 0.044566281 0.10438062 5.5187534e-39
-0.0084760478 0.042323835 0.10150904 4.686134e-39
-0.050559584 0.054542139 0.10120051 6.1677031e-39
-0.044913486 0.055046797 0.10476892 6.1687849e-39
-0.034118239 0.057051424 0.1048877 6.6293959e-39
-0.0250875 0.054838568 0.10462369 5.7024244e-39
-0.017402181 0.053272657 0.10214818 5.2371526e-39
-0.050345238 0.060208835 0.10055312 6.909203e-39
-0.04351845 0.062788285 0.103881 6.8155836e-39
-0.035298496 0.062737428 0.10422155 6.352809e-39
-0.027062006 0.061776735 0.1024751 5.6992028e-39
-0.018771831 0.06043914 0.10044526 6.5217902e-39
-0.021887517 0.018705571 0.1151368 6.9109896e-39
-0.015097836 0.017351324 0.11496513 7.0021203e-39
-0.0072476533 0.017813507 0.11582588 6.5375688e-39
-0.030917669 0.028883837 0.11459485 7.4634431e-39
-0.024619514 0.025250465 0.11490716 7.2790645e-39
-0.018058743 0.022205491 0.11461988 7.0935942e-39
-0.00555324 0.025712689 0.11494284 7.5549367e-39
-0.040838998 0.038601942 0.11397581 7.0925068e-39
-0.034255009 0.035641313 0.11490012 7.0935942e-39
-0.027676504 0.032511171 0.11495453 6.9084939e-39
-0.013129321 0.036664356 0.11504837 7.2776366e-39
-0.0073396782 0.0336187 0.1149282 7.1861472e-39
-0.042397391 0.04579936 0.11477937 6.8159367e-39
-0.037304323 0.043232728 0.11505567 6.3538824e-39
-0.022679206 0.046855345 0.11509448 7.2769177e-39
-0.016875984 0.043674823 0.11474786 7.2772666e-39
-0.009797914 0.040060218 0.11009467 8.3853742e-39
-0.043151546 0.054790918 0.11470784 6.2624169e-39
-0.034883313 0.056998383 0.11532994 6.9092114e-39
-0.025891287 0.053570684 0.11465321 7.0006797e-39
-0.019697219 0.05083964 0.1148107 8.0166183e-39
-0.042576332 0.061074119 0.11355122 6.4475144e-39
-0.036311038 0.061010405 0.11318331 7.0932397e-39
-0.029464571 0.060214452 0.11071085 6.5393555e-39
-0.021699229 0.018742975 0.12485324 7.0957368e-39
-0.014987047 0.017063348 0.12479256 7.2801477e-39
-0.0072421241 0.01700977 0.12428498 6.8163179e-39
-0.030855807 0.028913457 0.12550095 7.5556374e-39
-0.024447303 0.025216892 0.12504517 7.464176e-39
-0.018226575 0.02179054 0.12516072 7.2787072e-39
-0.0053446423 0.025907766 0.12509771 7.5560143e-39
-0.040496793 0.038948115 0.12514251 6.7247991e-39
-0.034080457 0.035705119 0.12499962 7.1854311e-39
-0.027789311 0.032552123 0.12503976 7.0010511e-39
-0.013241958 0.036707506 0.12505117 7.4620292e-39
-0.007452243 0.033342957 0.12500139 7.4634515e-39
