# .PCD v0.7 - Point Cloud Data file format
VERSION 0.7
FIELDS x y z rgb
SIZE 4 4 4 4
TYPE F F F F
COUNT 1 1 1 1
WIDTH 633
HEIGHT 1
VIEWPOINT 0 0 0 1 0 0 0
POINTS 633
DATA ascii
-0.010673455 -0.011956202 0.0083705289 8.4683437e-39
-0.0055424687 -0.011467688 0.0086123189 9.202299e-39
0.0027802326 -0.010819313 0.0096442988 7.0987594e-39
-0.02446294 -0.003007571 0.0090379631 9.7457464e-39
-0.00058985385 -0.0096758213 0.0092662089 9.9330131e-39
0.005507776 -0.0067965309 0.008956112 9.0135749e-39
0.012510369 -0.0016409002 0.008907781 8.8317158e-39
-0.026257413 0.0037787294 0.0086308382 9.566404e-39
0.016151549 0.0029656405 0.0086966474 9.476009e-39
-0.022386389 0.016208366 0.0094148619 9.6535549e-39
-0.019569853 0.01959102 0.0094884606 9.4677161e-39
-0.016842525 0.022127341 0.0089648366 9.9348208e-39
-0.0091973841 0.028770022 0.0097263139 1.1964924e-38
-0.0070796097 0.030312646 0.009834622 9.8339721e-39
-0.021405004 -0.011178897 0.017259095 7.1675225e-39
-0.014784941 -0.01286306 0.016669074 7.349383e-39
-0.0048259334 -0.012585482 0.01560582 5.9736583e-39
0.0021263971 -0.011122126 0.015023521 5.7010371e-39
-0.03001659 -0.00036784736 0.018047657 4.0407885e-39
-0.024705356 -0.0051730918 0.016643045 7.6241637e-39
-0.019436372 -0.0095920907 0.015731364 7.6227161e-39
-0.00089855684 -0.00940709 0.015516969 5.0517034e-39
0.0058846069 -0.0072456379 0.015423139 5.6992308e-39
0.01293703 -0.002653053 0.015654143 5.6088414e-39
-0.030342015 0.0058067269 0.018747801 9.0197252e-39
-0.027643897 0.0051739351 0.016211303 7.0742283e-39
0.017248193 0.0031271372 0.015305665 5.3286518e-39
0.021542352 0.0070951427 0.016713038 5.9747387e-39
-0.024489941 0.015321353 0.016211633 5.5144766e-39
-0.019228088 0.019558208 0.016093973 4.8676723e-39
0.023257587 0.014537115 0.017187284 7.4441038e-39
-0.021280497 0.021451298 0.016449174 6.074144e-39
-0.015033265 0.024984408 0.01564168 5.8879451e-39
-0.0078893034 0.028707983 0.016205966 4.4099283e-39
0.017748412 0.027676618 0.017199138 7.6266888e-39
0.021963352 0.023118788 0.017496908 7.443385e-39
-0.010821154 0.030308565 0.015428203 1.1796039e-38
-0.0042514051 0.031640217 0.016224083 5.4258879e-39
0.004839309 0.032955773 0.017057747 5.5133962e-39
0.013416501 0.031758714 0.017050708 7.8132479e-39
-0.021125348 -0.011416406 0.024615584 7.9954741e-39
-0.014804497 -0.012526007 0.024850622 7.07568e-39
-0.0050455397 -0.01252465 0.024813669 4.3181096e-39
0.0015727798 -0.011030219 0.024889596 4.0415283e-39
-0.030197699 -0.00097374711 0.023286246 1.4008743e-38
-0.025069147 -0.0048926384 0.024940601 7.7196061e-39
-0.018477442 -0.0093541238 0.026470561 6.9831257e-39
-0.0013993254 -0.0093083754 0.024313092 4.6869118e-39
0.0058852932 -0.0067985412 0.024791036 4.2262839e-39
0.013261071 -0.0023147296 0.024755664 4.5035897e-39
0.020129191 -3.8468657e-05 0.026821597 1.8076883e-38
-0.030578716 0.0048641749 0.02237675 9.5757857e-39
-0.027789775 0.0051213149 0.024891008 7.5359365e-39
0.017170791 0.003187363 0.0247883 4.3184782e-39
0.021693768 0.0068765408 0.024943158 4.8712792e-39
-0.030021079 0.010901853 0.025039796 1.8536058e-38
-0.024555178 0.014878705 0.024979359 4.5946923e-39
-0.018785268 0.018917888 0.025721712 4.0429745e-39
0.019696457 0.01046061 0.023653645 4.1333568e-39
0.023244122 0.01497165 0.024663508 7.6302971e-39
-0.021222841 0.021345463 0.024817219 4.5060994e-39
-0.014917117 0.02441288 0.024906848 3.9518494e-39
-0.0071346667 0.028340001 0.024947967 3.767461e-39
0.00018093057 0.029771436 0.021888543 4.2255637e-39
0.017874122 0.02756493 0.024911445 7.4441024e-39
0.022039443 0.023769898 0.024870601 7.9983636e-39
-0.010419114 0.030169483 0.026802234 6.7177113e-39
-0.0037266142 0.031627383 0.025122227 3.8592909e-39
0.004665609 0.033073395 0.024775811 5.2378995e-39
0.013596201 0.031788338 0.02498639 7.7199718e-39
0.020488849 0.030048419 0.02790851 6.7152563e-39
-0.021034038 -0.011064048 0.034336321 8.5482836e-39
-0.014350966 -0.012023981 0.03495466 6.9824012e-39
-0.0052388497 -0.012033267 0.035104509 4.1329939e-39
0.0017443908 -0.011045485 0.035101384 3.9493215e-39
-0.024132 -0.0047796089 0.034917325 7.3497404e-39
-0.016987141 -0.0091335289 0.035371561 7.0764031e-39
-0.0025323939 -0.0094785932 0.035290118 4.0415339e-39
0.0057516983 -0.0064707519 0.034994937 3.9493313e-39
0.012970546 -0.0022419319 0.035007745 3.8571315e-39
-0.030186756 0.0053061862 0.03092055 1.2344901e-38
-0.027101886 0.0049819155 0.034853738 7.4433793e-39
0.0095251668 0.00041943957 0.035930578 5.2386422e-39
0.016844731 0.0027669717 0.034970172 4.2262797e-39
0.021736991 0.0066845347 0.034908656 5.0553061e-39
-0.023958465 0.015027659 0.034906134 4.5028526e-39
-0.018662091 0.018689746 0.034877229 3.5819893e-39
0.023394825 0.014957367 0.035171393 7.536661e-39
-0.020903585 0.021382736 0.03435139 3.5830627e-39
-0.014775586 0.024384167 0.034916416 3.490144e-39
-0.0072401478 0.028182415 0.035000429 3.5823467e-39
0.017669991 0.027674299 0.035046458 7.4448241e-39
0.021929204 0.023679292 0.034920808 7.5355792e-39
-0.010402989 0.030302232 0.034793027 4.1326394e-39
-0.0037737812 0.031748235 0.035074309 3.5823411e-39
0.0048830635 0.033479754 0.035189908 5.4222894e-39
0.013919331 0.031920858 0.035209116 7.8125262e-39
-0.020296484 -0.010801274 0.046013851 7.8985869e-39
-0.01424043 -0.011804403 0.044996597 6.9813194e-39
-0.0053633098 -0.011922679 0.045054331 4.2251839e-39
0.0017079591 -0.010905361 0.045106046 3.6734507e-39
-0.023806566 -0.0044508702 0.04492332 7.0727878e-39
-0.017375182 -0.0088392831 0.044788096 6.7983715e-39
-0.0024519633 -0.0092976382 0.045942988 4.0415311e-39
0.0056807655 -0.0061739776 0.045053236 3.8574944e-39
0.012879248 -0.0023109321 0.044893067 3.6734549e-39
-0.026721532 0.0049337931 0.045083795 7.1664309e-39
0.0096852882 0.00059192837 0.046654191 3.9493397e-39
0.01670008 0.0029322875 0.045106839 3.9496914e-39
0.021746622 0.0066600828 0.044957384 4.7787164e-39
-0.023660036 0.015150658 0.045032341 4.3177369e-39
-0.018865092 0.018804587 0.044353887 3.3979554e-39
0.019685036 0.010596879 0.047978573 5.2378953e-39
0.023204034 0.01503117 0.045052044 7.1678771e-39
-0.0209902 0.020970007 0.0454478 3.5819851e-39
-0.014799578 0.02459627 0.045000564 3.3979456e-39
-0.0070465812 0.028396012 0.045190845 3.4901482e-39
0.00047118473 0.029891413 0.046540663 3.6734717e-39
0.017514998 0.027324025 0.045296054 7.1689575e-39
0.021866556 0.023570104 0.044906188 7.5362966e-39
-0.010458809 0.030344596 0.04657805 3.94896e-39
-0.0039367746 0.031905275 0.045151901 3.5823368e-39
0.0048788823 0.03343977 0.045028616 5.0538642e-39
0.01375972 0.032033537 0.045000147 7.5355764e-39
-0.021607036 -0.010918572 0.057043374 9.4838745e-39
-0.014610006 -0.011749772 0.055407703 6.8919992e-39
-0.0054466687 -0.011666804 0.054951709 4.3170166e-39
0.0016937875 -0.010808365 0.054710794 3.7652806e-39
-0.030139256 -0.0011466297 0.05954913 1.0044631e-38
-0.025194654 -0.0052402997 0.055168077 1.0502341e-38
-0.016819715 -0.0092497226 0.054334786 6.3399101e-39
-0.0030497566 -0.0091012903 0.055491969 3.8578588e-39
0.0056361379 -0.0063692615 0.055207074 3.6738206e-39
0.012853357 -0.0021580476 0.055050045 3.5819767e-39
-0.026944859 0.0052697328 0.055213206 7.2643733e-39
0.009870504 0.00036113302 0.052567072 3.7652974e-39
0.016814258 0.0034116409 0.055138931 3.5819837e-39
0.021617575 0.0071596825 0.054709442 4.3184529e-39
-0.023559323 0.014782335 0.055090055 4.5936007e-39
-0.018765915 0.01860325 0.055830002 3.3979582e-39
0.019613514 0.014000002 0.056381281 5.8814697e-39
0.022636982 0.015038615 0.054982077 6.7076178e-39
-0.020706061 0.020683527 0.054283798 3.2142648e-39
-0.014709632 0.024449822 0.055177841 3.2142718e-39
-0.0070777554 0.028340627 0.055138092 3.2142788e-39
0.017407639 0.026769999 0.055411056 6.7076178e-39
0.021632377 0.023268864 0.055034388 7.1660694e-39
-0.010423854 0.030414769 0.055724885 3.7652848e-39
-0.0040372885 0.031856913 0.054924268 3.214269e-39
0.0049904701 0.033181481 0.055127542 4.593242e-39
0.013436956 0.031787183 0.054902028 7.1667925e-39
-0.02255174 -0.011317769 0.065438896 9.2101659e-39
-0.014790606 -0.01202221 0.065178543 6.9877794e-39
-0.0058288067 -0.011600607 0.065019555 5.1453269e-39
0.0013779058 -0.010614744 0.06468308 3.9489488e-39
-0.030472565 -0.002973282 0.066145889 9.3967109e-39
-0.027034802 -0.0060786428 0.065122142 9.397427e-39
-0.014906363 -0.0089912452 0.065961815 6.7122939e-39
-0.0041058837 -0.0085382638 0.065493897 4.0418829e-39
0.0053639412 -0.0059056678 0.065048434 3.5819823e-39
0.012615273 -0.0020379184 0.064916387 3.3979456e-39
-0.03040104 0.0027879407 0.065582946 8.6609452e-39
-0.026640123 0.005589413 0.065147527 7.3619569e-39
0.0095012309 0.00082393212 0.067280583 3.9496985e-39
0.016406313 0.0038982222 0.065175809 3.4901454e-39
0.021294106 0.0078325737 0.064406328 4.6847103e-39
-0.023098318 0.014379068 0.06494689 4.870182e-39
-0.018235689 0.01803118 0.065674163 3.0306078e-39
0.019188134 0.014784321 0.06588129 6.2484459e-39
0.022093534 0.015004206 0.064726785 6.6147005e-39
-0.020511504 0.020606063 0.065136157 3.4908475e-39
-0.014319174 0.024119314 0.064963914 2.9387611e-39
-0.006831794 0.027925249 0.065279484 2.8469326e-39
0.0053287796 0.02950662 0.067163683 5.0535069e-39
0.016590001 0.026383266 0.065175079 6.430668e-39
0.021421351 0.02267947 0.064441919 6.889121e-39
-0.010490243 0.030398054 0.063444778 3.5816068e-39
-0.0038761823 0.031451236 0.064698108 2.8469214e-39
0.0049312161 0.032515738 0.064956769 4.5006806e-39
0.012928143 0.031592544 0.064573906 6.8894825e-39
-0.022580242 -0.011316254 0.074071467 9.302716e-39
-0.014952643 -0.012061512 0.074794196 7.265797e-39
-0.0056852368 -0.011656528 0.074941069 5.6981322e-39
0.0010285694 -0.010579836 0.075216003 4.2248126e-39
-0.030347163 -0.0031830301 0.073612943 9.581098e-39
-0.026811838 -0.0057859709 0.074614055 9.3048712e-39
-0.01464599 -0.0084995506 0.074789621 6.8981187e-39
-0.0042087045 -0.0074940841 0.074833907 3.9500404e-39
0.0049469746 -0.0050612451 0.074874021 3.3061115e-39
0.012367732 -0.0018587037 0.07482025 3.1224307e-39
-0.030180734 0.0016230283 0.072328523 8.66165e-39
-0.02629504 0.0056037894 0.074609384 7.4563063e-39
-0.019521231 0.0085267648 0.073818222 6.8963461e-39
0.0082487427 0.0013252752 0.076422967 3.4905098e-39
0.015866442 0.0045377095 0.074980773 4.5014107e-39
0.02081068 0.0081376685 0.074348092 6.6139732e-39
-0.022895763 0.014244487 0.074824534 5.238596e-39
-0.017441204 0.017295914 0.074755721 2.939124e-39
0.01820338 0.015080466 0.075578794 6.0636903e-39
0.021429686 0.015011413 0.074703589 6.6136131e-39
-0.020533761 0.020577597 0.07497602 4.3195235e-39
-0.014249736 0.02385601 0.07484743 2.7550859e-39
-0.0060357461 0.027311269 0.075057782 2.8469284e-39
0.0054084128 0.028691893 0.075950585 5.7881866e-39
0.01556911 0.025438553 0.075185217 6.2462753e-39
0.021025477 0.021796379 0.073454581 6.888758e-39
-0.010047177 0.030411284 0.07137765 3.3060863e-39
-0.00339159 0.03138119 0.074638695 3.3060933e-39
0.0048551392 0.031963252 0.074566439 5.6945378e-39
0.012109057 0.031305015 0.073919959 6.8891168e-39
-0.021942046 -0.011436747 0.080917388 9.5782225e-39
-0.013804896 -0.013416997 0.083203711 8.0901683e-39
-0.0050156685 -0.013507804 0.084987782 7.997265e-39
0.0023553395 -0.011415117 0.086452782 8.0898264e-39
-0.030102074 -0.0016167101 0.081172876 1.0226109e-38
-0.02680533 -0.0054833218 0.08102303 9.4874548e-39
-0.01294439 -0.0085935136 0.081717782 7.2654677e-39
-0.0046175304 -0.0075858398 0.082822464 6.067656e-39
0.0059480676 -0.0059176497 0.084182955 5.2386072e-39
0.012690472 -0.0024452407 0.085645393 6.432826e-39
-0.03055232 0.007879178 0.087545633 8.7326468e-39
-0.02629195 0.0061858427 0.082605757 7.8207785e-39
0.0075532179 0.0027202887 0.08127135 6.8999432e-39
0.016381146 0.0046596755 0.084715389 6.3388325e-39
0.020766241 0.0083289444 0.085376248 7.4412143e-39
-0.030585369 0.0125319 0.089235432 9.4691539e-39
-0.024301989 0.014882823 0.08412946 7.6299258e-39
-0.017909199 0.017934233 0.083287954 5.0549432e-39
0.017495885 0.015331513 0.084537111 5.9711303e-39
0.021160288 0.014606697 0.084798917 6.889121e-39
-0.021625152 0.021482956 0.087000608 8.2738575e-39
-0.014476538 0.024590438 0.084532835 5.4215523e-39
-0.0057117469 0.027799096 0.084444888 5.1449696e-39
0.0054831575 0.02761019 0.084373645 6.1558873e-39
0.0149963 0.024764474 0.084614091 6.1540755e-39
0.020539615 0.020436931 0.082989812 6.889121e-39
-0.011442265 0.030266453 0.089876458 8.8259467e-39
-0.0038001053 0.031212917 0.085272744 6.2462655e-39
0.0047445213 0.031517148 0.084739156 6.521416e-39
0.011614701 0.03082869 0.083724938 6.9809537e-39
-0.020310126 -0.032544501 0.099506199 1.0672394e-38
-0.015250902 -0.031464208 0.099632718 1.0393645e-38
-0.012598338 -0.027018273 0.097853027 1.0394001e-38
-0.0050323419 -0.023644054 0.096993543 1.0116694e-38
0.0020853681 -0.021481413 0.098729737 1.0024863e-38
-0.011503134 -0.01852457 0.090689734 9.4655525e-39
-0.0038692199 -0.017608011 0.092013448 1.0208168e-38
0.0055025732 -0.015103079 0.095159143 1.0117058e-38
0.012322804 -0.012331984 0.098008513 1.0116699e-38
0.0086640948 -0.0090480326 0.091846906 9.2876577e-39
0.015215211 -0.0050112894 0.094722874 9.4709671e-39
0.02086533 -0.0016643124 0.098628782 9.7464694e-39
-0.053559255 0.0073654675 0.09960214 9.8437153e-39
-0.048931375 0.0092863096 0.099487536 1.0119939e-38
-0.033596866 0.0092338258 0.091250755 8.9120074e-39
0.017609477 0.0046626064 0.093574166 8.0909208e-39
0.021824306 0.0055623031 0.095787518 9.0081841e-39
-0.05076474 0.010532573 0.099368088 9.7504407e-39
-0.043765809 0.014817542 0.099075004 9.565325e-39
-0.034622189 0.016136302 0.094414957 9.6546297e-39
-0.028099054 0.018223638 0.091198124 9.5627956e-39
0.018801285 0.015383929 0.093963154 6.8923762e-39
0.021696592 0.01482885 0.095472448 7.9947539e-39
-0.033384949 0.022632441 0.098051183 9.5642432e-39
-0.024805352 0.0253084 0.095156968 9.8408301e-39
-0.016229063 0.027993891 0.0924742 9.2869346e-39
-0.0055385097 0.028375175 0.091015309 6.159839e-39
0.0066009061 0.028891055 0.092391111 6.9849361e-39
0.015779635 0.025267217 0.094931535 7.350825e-39
0.020784974 0.021536302 0.098147362 8.4550103e-39
-0.022262828 0.031019419 0.098824874 9.3798505e-39
-0.01437162 0.032236572 0.096717209 9.3791316e-39
-0.0048811897 0.033393819 0.095136888 8.0909054e-39
0.0049914354 0.032721616 0.095074184 7.9047162e-39
0.012104436 0.031103654 0.096538022 8.6397645e-39
-0.06125183 -0.050721437 0.10861421 7.1678645e-39
-0.05485544 -0.050941098 0.10742868 8.3642538e-39
-0.047187384 -0.050776586 0.10800139 9.1954579e-39
-0.071305774 -0.04193756 0.1070196 7.3533347e-39
-0.065896399 -0.046324853 0.10681358 7.1682232e-39
-0.056663953 -0.04957423 0.10561774 8.3653356e-39
-0.043529294 -0.048814565 0.1064596 9.5646005e-39
-0.034495361 -0.044574678 0.1063983 8.9188696e-39
-0.027754398 -0.041175347 0.10664025 8.3656958e-39
-0.074473135 -0.035052717 0.10592091 6.9845494e-39
-0.069709472 -0.039857745 0.10339908 5.9700317e-39
-0.030464709 -0.038730137 0.10417867 1.1045144e-38
-0.023558002 -0.037747815 0.10549401 8.8259523e-39
-0.015191063 -0.033575848 0.10538527 8.7333993e-39
-0.0078172926 -0.031011108 0.10631905 8.4571753e-39
-0.080388062 -0.023495072 0.10882123 7.0781926e-39
-0.07827235 -0.025341194 0.10668103 6.3402618e-39
-0.011341719 -0.029284064 0.10153401 9.8404685e-39
-0.0039614448 -0.027706744 0.10444905 8.9177948e-39
0.0043944432 -0.023214759 0.10538834 8.733765e-39
0.010806389 -0.020590628 0.10795464 8.5475703e-39
-0.080326423 -0.018637823 0.10913219 5.6941665e-39
-0.077445693 -0.014774563 0.10748136 6.6150508e-39
0.0084071457 -0.01864983 0.10269748 9.2873032e-39
0.014749743 -0.014857833 0.10518558 9.1943831e-39
0.020829584 -0.011060765 0.10816944 9.5638858e-39
-0.072320253 -0.0070190984 0.10760418 6.8948775e-39
-0.066524997 -0.0026860712 0.10573833 8.8281159e-39
-0.059699658 -0.00014979931 0.10234125 1.0119946e-38
0.018578373 -0.0081559056 0.10221029 9.6553612e-39
0.023011252 -0.0047148746 0.1058498 9.471693e-39
-0.062060669 0.0019353407 0.10629703 7.9969133e-39
-0.055723455 0.0064772791 0.10521011 8.3660559e-39
-0.049213078 0.0094761373 0.10159396 9.7493561e-39
0.019878738 0.0085040247 0.10040779 8.4622284e-39
0.025858188 0.0052227234 0.10534692 9.3794932e-39
-0.051662073 0.011530768 0.10652465 7.7214082e-39
-0.045747139 0.015633186 0.1049779 8.1805843e-39
-0.039356418 0.019169657 0.1015517 9.8415503e-39
0.019513248 0.017694078 0.10121285 8.1856429e-39
0.02465024 0.015193024 0.10486002 8.918515e-39
-0.041210223 0.021306025 0.10673971 7.3515453e-39
-0.03514364 0.02529625 0.10475586 8.2727827e-39
-0.028001934 0.028702699 0.10179903 8.9177934e-39
0.017742546 0.027019741 0.10362818 8.5508171e-39
0.022311075 0.023689615 0.10602747 8.9181535e-39
-0.030665172 0.030647863 0.10756774 7.9061638e-39
-0.024458844 0.03314805 0.10546545 8.4571753e-39
-0.015210452 0.036895521 0.10501572 8.8252376e-39
-0.0051375283 0.038101688 0.10413699 9.0103519e-39
0.0055359541 0.03690315 0.10479805 9.1954649e-39
0.013951197 0.033219092 0.10569335 9.1947432e-39
0.020366589 0.03072495 0.10913707 9.379133e-39
-0.012542557 0.040594902 0.10857903 9.0096275e-39
-0.0048998501 0.040786818 0.10808738 9.009989e-39
0.0026678992 0.040652487 0.10851157 9.563167e-39
-0.097521335 -0.054147474 0.11864644 1.4693735e-39
-0.081362523 -0.056459233 0.11959916 3.2146319e-39
-0.073360384 -0.052973147 0.11889324 3.3071905e-39
-0.063941747 -0.051452592 0.11608648 5.9729282e-39
-0.054975979 -0.052073892 0.11527288 6.5228608e-39
-0.046409123 -0.051275834 0.11537801 7.0745968e-39
-0.039378036 -0.050337758 0.11786804 7.6234588e-39
-0.095760807 -0.043421023 0.11951602 2.9420121e-39
-0.070661888 -0.047537081 0.11324484 3.9496606e-39
-0.066210017 -0.048337396 0.11336226 5.8814444e-39
-0.055605352 -0.049886286 0.11497942 5.6963455e-39
-0.042504549 -0.048885871 0.11568954 6.8005351e-39
-0.034712274 -0.044930719 0.11538076 6.8920104e-39
-0.027418587 -0.041573945 0.11534627 6.6143347e-39
-0.091937475 -0.037522983 0.119387 2.5728653e-39
-0.085615039 -0.032215472 0.11820628 2.1136794e-39
-0.078921624 -0.030865625 0.11093573 4.7765346e-39
-0.030855874 -0.039581981 0.11754741 7.2665677e-39
-0.023724992 -0.037712984 0.11570626 6.9852893e-39
-0.015173499 -0.033929959 0.11543866 6.8923692e-39
-0.0074176616 -0.031165527 0.11480512 6.7994491e-39
-0.081973374 -0.024872027 0.11586733 4.3184431e-39
-0.079485767 -0.024421155 0.11219365 6.1565908e-39
-0.011242026 -0.02950827 0.11749909 7.1718483e-39
-0.0038075673 -0.028107775 0.11566868 6.8923706e-39
0.0049175355 -0.023918688 0.11526972 6.8912888e-39
0.011341402 -0.020935008 0.11533424 7.5362952e-39
-0.08092308 -0.017590515 0.11574198 5.144964e-39
-0.078361876 -0.013840119 0.11488143 5.0516824e-39
0.0090456903 -0.01929714 0.11616496 6.6147075e-39
0.015519303 -0.016330145 0.11530267 7.4430248e-39
0.021446403 -0.011871865 0.11559028 8.0883928e-39
-0.073452435 -0.0061689569 0.11533692 6.1551601e-39
-0.067308903 -0.0016690785 0.11521661 6.6165011e-39
0.025645018 -0.0051716468 0.11532047 7.9036442e-39
0.030334631 -0.0013180481 0.11845321 8.8263208e-39
-0.070174627 8.2115694e-05 0.11982991 6.7058101e-39
-0.063316502 0.0025831193 0.1152963 6.0633288e-39
-0.056195065 0.0068620592 0.11536155 6.52503e-39
-0.049800023 0.0096800523 0.11827638 6.8052322e-39
0.028646957 0.0044819065 0.11425571 8.0883956e-39
0.03067939 0.005863335 0.11664181 8.178785e-39
-0.052094162 0.011776115 0.11466054 5.9714919e-39
-0.046207774 0.015932826 0.11541764 6.4321127e-39
-0.039266042 0.019518431 0.11860102 6.342445e-39
0.028246257 0.015794327 0.11431673 8.27351e-39
0.031028809 0.01368883 0.11667034 8.5472088e-39
-0.04159363 0.021507062 0.1147498 6.340273e-39
-0.035438638 0.025838984 0.11553717 6.3399157e-39
-0.029000495 0.029200038 0.11752261 5.7885468e-39
0.019332001 0.028742449 0.11142126 8.4607893e-39
0.024753362 0.025086218 0.11512373 8.2731456e-39
0.030243423 0.020404022 0.11914117 8.2673681e-39
-0.031098094 0.030901711 0.11464908 7.4448199e-39
-0.024875371 0.034203138 0.1152243 6.7068947e-39
-0.016506461 0.038454592 0.11506609 6.8905685e-39
-0.0071387966 0.039746229 0.11226309 7.6299412e-39
0.0075961906 0.039127592 0.11339547 8.0898404e-39
0.015512681 0.035654821 0.11502618 8.3657042e-39
0.02145993 0.031706952 0.11636005 8.6401261e-39
-0.013319241 0.041083265 0.11560055 7.6274119e-39
-0.0049990155 0.042153072 0.11540509 7.7196117e-39
0.0044551943 0.041798998 0.1157494 7.9958385e-39
0.011728162 0.04081022 0.117571 8.3638979e-39
-0.09415146 -0.05375066 0.12390745 1.5615804e-39
-0.084980205 -0.053935561 0.1246297 1.9296482e-39
-0.075200506 -0.052833486 0.12500782 1.469382e-39
-0.064896375 -0.051596355 0.12476051 3.6745129e-39
-0.054976113 -0.051809851 0.12480143 5.6041401e-39
-0.0463931 -0.051351223 0.12476598 7.0756744e-39
-0.039443757 -0.050415974 0.12629016 7.5323296e-39
-0.094305031 -0.045203496 0.12556355 1.4704666e-39
-0.085231759 -0.045467924 0.12738189 1.2860711e-39
-0.075124212 -0.046503898 0.12742929 1.1023987e-39
-0.065686479 -0.047824007 0.12703185 2.8472703e-39
-0.055392362 -0.048805926 0.12729028 4.7772633e-39
-0.043794755 -0.048300993 0.12572826 6.4335546e-39
-0.035076197 -0.044587981 0.12515704 6.708338e-39
-0.02742265 -0.041616805 0.12459472 6.7980029e-39
-0.091972806 -0.037751395 0.12433594 2.0222096e-39
-0.085508399 -0.034439076 0.12635271 1.1945971e-39
-0.078306809 -0.03624351 0.12931895 9.1836337e-40
-0.031056145 -0.03917316 0.12591091 6.8970621e-39
-0.024214558 -0.037004579 0.12524128 6.8016183e-39
-0.015561703 -0.033260211 0.12491006 6.7086954e-39
-0.0081094969 -0.031021429 0.12391242 6.3388226e-39
-0.082487933 -0.025617875 0.12517099 2.1125864e-39
-0.079279974 -0.024005366 0.12865506 3.2146109e-39
-0.012232028 -0.028663751 0.12653346 5.8821787e-39
-0.0045568477 -0.026279399 0.12540485 5.6963413e-39
0.0039628996 -0.022645907 0.12444789 5.7878125e-39
0.010900133 -0.020626476 0.12236711 6.5221335e-39
-0.08092656 -0.017831706 0.12443803 4.7768989e-39
-0.07800521 -0.014084858 0.12589757 4.1329673e-39
-0.00095894776 -0.0193766 0.12877735 5.2350044e-39
0.0067555211 -0.017645346 0.12685412 4.9602098e-39
0.014710959 -0.014530537 0.12509952 5.6956182e-39
0.02141929 -0.011394244 0.12344437 6.7068933e-39
-0.07325644 -0.0062424238 0.12513267 5.7888985e-39
-0.067023903 -0.0019406 0.12541041 6.2502438e-39
0.017879548 -0.0082230102 0.12768154 4.9598497e-39
0.024599692 -0.0047903131 0.12525961 5.9711261e-39
0.030290216 -0.00099129451 0.12215909 8.0869495e-39
-0.070116512 2.4224759e-05 0.12242082 6.5210573e-39
-0.063130736 0.0022240551 0.12474153 5.8800137e-39
-0.055698711 0.0064578163 0.12519246 6.1573265e-39
-0.048976354 0.0093749063 0.12663862 6.436084e-39
0.028015293 0.0043637329 0.12617263 5.3271931e-39
0.030847611 0.0062628593 0.12442881 6.8898454e-39
-0.05168356 0.011436502 0.12434972 5.7867321e-39
-0.045060333 0.015121129 0.12518793 5.9722121e-39
-0.037723824 0.018490432 0.1270792 5.2371652e-39
0.028260104 0.015705856 0.12606978 5.6027037e-39
0.031018607 0.01405116 0.12484761 7.1653533e-39
-0.041063022 0.0209735 0.12370555 5.9714821e-39
-0.034399778 0.024089942 0.12501751 5.3282763e-39
-0.026602836 0.027524775 0.12673272 4.6847033e-39
-0.019080067 0.029202731 0.12932712 3.857095e-39
0.019086858 0.029063681 0.12878072 4.3162739e-39
0.025353556 0.025143972 0.12546624 6.3381108e-39
0.030250449 0.020536594 0.12466796 7.9936777e-39
-0.030648746 0.030463751 0.12168436 6.6143305e-39
-0.02373684 0.032746945 0.12447794 5.6952567e-39
-0.015463516 0.036205325 0.1258204 5.0516852e-39
-0.0058651445 0.03815119 0.12743601 4.2248e-39
0.0058336896 0.038537148 0.12714174 4.6836201e-39
0.01542523 0.035881944 0.12553951 5.8789305e-39
0.021808567 0.031903312 0.12486666 6.9820411e-39
-0.012273426 0.040934201 0.12327868 6.4306581e-39
-0.0046524275 0.041772645 0.12442172 5.9714863e-39
0.0046818797 0.041789766 0.12445354 6.522502e-39
0.011844628 0.040776864 0.12396891 7.4419402e-39
-0.082700275 -0.050578285 0.13110507 2.6661343e-39
-0.07486856 -0.051165491 0.13051288 1.1938741e-39
-0.063425496 -0.050840534 0.13188286 4.4095528e-39
-0.054617617 -0.051042575 0.13327587 5.3282707e-39
-0.047061391 -0.050948292 0.13299882 6.2469858e-39
-0.091630459 -0.043988682 0.13123935 4.5954182e-40
-0.084584408 -0.04438699 0.13197681 1.2860697e-39
-0.074543774 -0.043470696 0.13274795 1.8374442e-39
-0.0647441 -0.044638567 0.13481615 3.6741499e-39
-0.055226516 -0.045722499 0.13576752 4.2251629e-39
-0.044923976 -0.04541539 0.13541003 4.6850635e-39
-0.035695743 -0.04331781 0.13455585 5.5126661e-39
-0.028381621 -0.041096084 0.13341236 6.0633148e-39
-0.090981342 -0.038876601 0.13091062 1.8367239e-40
-0.083486788 -0.035959166 0.13235259 4.5918168e-40
-0.074864149 -0.034942802 0.1349171 2.2044204e-39
-0.066030525 -0.035886522 0.13759501 3.7656211e-39
-0.05615646 -0.037844647 0.13904561 3.5815886e-39
-0.043664467 -0.037949443 0.13888927 3.4897559e-39
-0.034060352 -0.036405183 0.13687752 4.1333302e-39
-0.025099313 -0.034842167 0.13513866 5.05349e-39
-0.01628113 -0.032364987 0.1341809 5.1449612e-39
-0.0094637172 -0.030332005 0.13176036 4.9598427e-39
-0.081133768 -0.025949975 0.13212506 2.2962545e-39
-0.075459197 -0.025037251 0.13577564 3.3982819e-39
-0.067577869 -0.025582427 0.13876475 3.9492921e-39
-0.031815227 -0.028378852 0.13935798 3.0305742e-39
-0.023690533 -0.026844634 0.13827063 3.6737898e-39
-0.014679474 -0.025736092 0.1360231 4.5932308e-39
-0.0057609063 -0.023887908 0.13431172 4.8687344e-39
0.0021144967 -0.02148895 0.13275628 4.7765346e-39
-0.080608681 -0.018845623 0.13171604 4.1333232e-39
-0.074832201 -0.015232826 0.13531366 3.857458e-39
-0.0666207 -0.014121262 0.13847764 3.4897545e-39
-0.058841765 -0.010981341 0.13934332 4.5921462e-39
-0.020685006 -0.019289441 0.13956732 3.1224083e-39
-0.013552782 -0.017764471 0.13897975 4.2248056e-39
-0.004052659 -0.016246006 0.13712727 5.1446081e-39
0.0048832153 -0.014901582 0.13482952 5.0524068e-39
0.013341614 -0.012672113 0.13330333 5.1435207e-39
0.020714452 -0.010678663 0.13104087 5.3268371e-39
-0.072371304 -0.0073860404 0.13413192 4.7765402e-39
-0.065313883 -0.0045328587 0.13586305 4.4091968e-39
-0.056160185 -0.0033961069 0.1381447 4.4088381e-39
-0.046773028 -0.0019436041 0.13922589 5.2357205e-39
-0.038591839 -0.00088694878 0.13984054 5.9693199e-39
-0.0016611429 -0.0080204951 0.13911718 5.6030639e-39
0.0061780927 -0.0064425613 0.13786137 5.5112298e-39
0.015164947 -0.0052822097 0.1355097 5.143885e-39
0.022752415 -0.0035729308 0.13326751 5.2357191e-39
-0.062341504 0.0016495957 0.13403127 5.2360792e-39
-0.05465693 0.004563014 0.13516362 4.7769017e-39
-0.045684464 0.0061911796 0.13702771 4.5928706e-39
-0.036089033 0.0070175421 0.13862096 5.2357219e-39
-0.026749803 0.0083785653 0.13933717 5.5105025e-39
0.0082309172 0.0020042991 0.13931318 6.153358e-39
0.016476586 0.0042462079 0.13784117 5.1435235e-39
0.024558336 0.0052311854 0.13455243 4.6839845e-39
0.030440517 0.007896198 0.13158552 6.1537237e-39
-0.051231615 0.010895359 0.13279712 5.1438794e-39
-0.044091899 0.013286705 0.13428088 4.7769003e-39
-0.035138503 0.015523214 0.13571995 4.7769032e-39
-0.025733635 0.016206063 0.13784036 5.1438864e-39
-0.016749028 0.017506383 0.13897216 5.4186698e-39
-0.008042152 0.018744029 0.13974647 4.6836145e-39
0.0075549362 0.018114369 0.13967118 4.2244328e-39
0.016819736 0.015408888 0.1384268 4.9598525e-39
0.024887018 0.015006126 0.13498823 4.6836257e-39
0.030556535 0.012941833 0.13208711 6.338115e-39
-0.040470224 0.020333841 0.13095875 4.6843348e-39
-0.033019386 0.022140188 0.13338669 4.8683729e-39
-0.02471013 0.024611725 0.13495392 5.0527698e-39
-0.015581182 0.025837313 0.1367985 5.236082e-39
-0.0056829741 0.026504435 0.13819942 4.867654e-39
0.0054044682 0.026417552 0.13840067 4.5921462e-39
0.01573015 0.025614044 0.1367895 4.5003121e-39
0.023312408 0.024245489 0.13429804 5.2353604e-39
-0.02179228 0.03124946 0.1325907 5.4193873e-39
-0.014332154 0.033155166 0.1340926 4.9598497e-39
-0.0049626278 0.034884613 0.13504085 4.9602112e-39
0.0050392551 0.03503878 0.13528976 4.6839845e-39
0.014284601 0.03367424 0.13426483 4.8676568e-39
0.021275096 0.031374276 0.13272788 5.8782116e-39
-0.010732823 0.040196083 0.13044819 5.602331e-39
-0.0034551092 0.040765904 0.13192219 5.5123004e-39
0.0039634435 0.040841054 0.13172594 5.6026995e-39
0.010789943 0.040379394 0.13099141 6.3381164e-39
-0.070182174 -0.040190179 0.14085102 5.7870992e-39
-0.063581049 -0.042577051 0.14132451 4.7769032e-39
-0.054947611 -0.043240793 0.14181624 5.1446067e-39
-0.04594139 -0.042969607 0.141601 4.5925077e-39
-0.036284503 -0.042310096 0.14122769 4.224437e-39
-0.071953952 -0.033493299 0.14141265 3.9496578e-39
-0.064276703 -0.034178704 0.14313059 4.5006708e-39
-0.055030935 -0.034673322 0.1441184 4.7761773e-39
-0.045160875 -0.034521274 0.1439632 4.5003107e-39
-0.035835057 -0.033819161 0.14254899 4.7761829e-39
-0.026223835 -0.033769928 0.14130241 4.5932266e-39
-0.017577995 -0.031298086 0.14070439 3.6734198e-39
-0.072686031 -0.024901368 0.14181614 3.9496592e-39
-0.064605817 -0.024884807 0.14424922 4.6847033e-39
-0.055106875 -0.024938133 0.14531121 4.1329617e-39
-0.045132842 -0.024927869 0.14546219 4.1329631e-39
-0.03501074 -0.024913251 0.14464122 4.4088367e-39
-0.025664879 -0.023956375 0.14296843 4.5010351e-39
-0.016651874 -0.023158323 0.14134851 4.4091982e-39
-0.0061672949 -0.022897296 0.14070798 3.8570922e-39
-0.072495192 -0.016127916 0.14137389 4.5013939e-39
-0.064280406 -0.015516791 0.14375277 4.2251629e-39
-0.055082593 -0.015035906 0.14506885 4.3166383e-39
-0.045093302 -0.015022464 0.14557691 4.1329645e-39
-0.03499236 -0.015013925 0.1456646 4.2251629e-39
-0.024963368 -0.015105023 0.14490132 4.3173627e-39
-0.015323348 -0.014665056 0.1435813 4.4091982e-39
-0.0063318121 -0.013118951 0.14216082 4.4095598e-39
0.0033109651 -0.013843455 0.14102238 4.0414877e-39
0.010570026 -0.01122206 0.1411598 3.9489277e-39
-0.071045592 -0.0085817622 0.14123961 2.9394589e-39
-0.063810997 -0.0066405628 0.14206535 3.7656225e-39
-0.054511633 -0.0060100146 0.14344746 4.4088395e-39
-0.045019962 -0.0052244198 0.14450894 4.500675e-39
-0.03508693 -0.0050693308 0.1451122 4.3169998e-39
-0.024961967 -0.0050194259 0.14525543 4.2251629e-39
-0.015050261 -0.0050309016 0.14489435 4.4088367e-39
-0.0051624225 -0.0049836384 0.14407909 4.6847075e-39
0.0043862932 -0.0040029599 0.14268333 4.7765444e-39
0.012737942 -0.0025320277 0.14162932 4.5003149e-39
0.021559248 -0.0021347175 0.14012013 4.1325973e-39
-0.061119713 0.00089437986 0.14106725 3.4897503e-39
-0.053928405 0.0031179236 0.14123814 4.1333302e-39
-0.044173155 0.0034164519 0.14246088 4.3173641e-39
-0.034667421 0.0045511206 0.14373676 4.5010337e-39
-0.024960259 0.0051203342 0.14421488 4.5928692e-39
-0.015159881 0.0050654397 0.14490956 4.5010323e-39
-0.0050531169 0.005074231 0.14495331 4.6843432e-39
0.0051056813 0.0050983885 0.14377393 4.7758199e-39
0.014154919 0.0055952473 0.1428894 4.7761829e-39
0.022249551 0.0064699803 0.14085782 4.3173613e-39
-0.043247096 0.012347394 0.14108966 3.6737842e-39
-0.033845257 0.013813015 0.14155489 4.2255244e-39
-0.0242803 0.013820436 0.14299378 4.6850677e-39
-0.014956516 0.014967201 0.14385048 4.9605755e-39
-0.0050554178 0.015156444 0.1442464 4.683983e-39
0.0050631287 0.015049529 0.14413378 4.7758171e-39
0.014397818 0.014898075 0.14300033 4.8680184e-39
0.022907702 0.014784775 0.14090343 4.2244426e-39
-0.031141507 0.020662321 0.14109673 3.6737814e-39
-0.024354286 0.023206979 0.14110464 4.2258818e-39
-0.014102864 0.023307312 0.14204492 4.9612958e-39
-0.0048647695 0.024205955 0.14301243 4.960214e-39
0.0049197851 0.024312437 0.14298369 4.9598553e-39
0.013793536 0.023772305 0.14207743 4.8680198e-39
0.022599014 0.024390357 0.14081378 4.3162725e-39
-0.013653371 0.031528279 0.14067613 4.0411234e-39
-0.0042752051 0.032387976 0.14087357 4.5010309e-39
0.0045864331 0.032334831 0.14114346 4.7765416e-39
0.014336109 0.032526959 0.14071436 4.040766e-39
-0.060935069 -0.023759792 0.15026116 6.2513284e-39
-0.05426481 -0.024173887 0.15075642 4.867661e-39
-0.047009297 -0.023079051 0.15070999 5.5116011e-39
-0.037438687 -0.022048362 0.15010065 5.8818424e-39
-0.060893971 -0.017126866 0.15015589 4.5010449e-39
-0.053358041 -0.0156153 0.15030171 4.8687499e-39
-0.045019764 -0.016721051 0.15040502 5.0520579e-39
-0.036258295 -0.015078584 0.15026917 5.698163e-39
-0.02974169 -0.012785564 0.15005484 5.97621e-39
-0.052024364 -0.0095629403 0.15007257 4.5003331e-39
-0.045750786 -0.0080311708 0.1502008 4.9609567e-39
-0.03556538 -0.0065807039 0.15011334 5.514492e-39
-0.034819782 0.00092427363 0.15009512 4.8687611e-39
