# .PCD v0.7 - Point Cloud Data file format
VERSION 0.7
FIELDS x y z rgb
SIZE 4 4 4 4
TYPE F F F F
COUNT 1 1 1 1
WIDTH 736
HEIGHT 1
VIEWPOINT 0 0 0 1 0 0 0
POINTS 736
DATA ascii
-0.020343406 0.031117789 0.0097440453 1.5590824e-38
-0.014249627 0.035742816 0.0090336502 1.0150213e-38
-0.0079470742 0.0387263 0.0095127337 2.5869301e-39
-0.010957745 0.04046075 0.0093597919 1.8264851e-38
-0.0044304058 0.044125162 0.0093274973 8.8594783e-39
0.0020997659 0.047920227 0.0094653945 2.1306379e-39
0.0058231642 0.052839577 0.0096516227 6.7400719e-39
0.012941174 0.059233367 0.0097708274 1.2824993e-38
0.0165105 0.062755667 0.0097850896 1.2918981e-38
0.020360608 0.067084156 0.0098467376 1.8543594e-38
0.028398685 0.075303957 0.0099768797 1.7528377e-38
0.030212121 0.076693818 0.0099666761 1.7620574e-38
0.046084352 0.087481827 0.0099192634 1.3101217e-38
0.048347693 0.094670564 0.0099775176 1.6972338e-38
0.053551864 0.095327087 0.0097418474 1.4853636e-38
0.065354057 0.10507564 0.0098035 1.5314253e-38
0.070031792 0.10880601 0.0099279899 3.5146878e-39
-0.066469699 -0.071509458 0.019933853 2.2346507e-41
-0.072357066 -0.062468309 0.018937081 2.5930552e-39
-0.069081314 -0.067855135 0.019554922 5.6870017e-40
-0.080788106 -0.05095822 0.017345428 1.3285948e-38
-0.07616891 -0.054335736 0.018659253 2.7749199e-39
-0.082345083 -0.044206016 0.0172546 4.8014273e-39
-0.076726295 -0.044912796 0.018759489 1.8946816e-40
-0.06717068 -0.042230915 0.019690577 5.0670952e-42
-0.083305046 -0.034777224 0.017122146 2.679839e-39
-0.075685941 -0.034432236 0.018626738 3.6307643e-42
-0.065971293 -0.033819333 0.019210383 4.3454265e-42
-0.056601975 -0.031791255 0.019657634 9.8345929e-41
-0.049232952 -0.030210426 0.019815722 6.1474964e-42
-0.082260266 -0.025717188 0.016531959 2.7724003e-39
-0.075361498 -0.024592081 0.017883234 6.4900017e-40
-0.065465651 -0.024520569 0.018667148 3.9894967e-42
-0.055775631 -0.024049152 0.019122725 4.7069615e-42
-0.047593385 -0.022506544 0.019467425 1.9053735e-40
-0.039466873 -0.020514889 0.019733576 5.0741017e-42
-0.080756433 -0.019055655 0.015142029 8.1215644e-39
-0.074027069 -0.016072866 0.01681242 2.0344696e-39
-0.065342091 -0.01463598 0.017779732 7.4191887e-40
-0.055421799 -0.014582657 0.018509516 9.582219e-41
-0.045934755 -0.014078867 0.019128861 5.0642927e-42
-0.037714083 -0.013294851 0.019629423 9.7621458e-41
0.038914915 -0.012176562 0.018466631 1.8585141e-40
0.044427995 -0.013137779 0.017882014 7.2935805e-39
0.050419431 -0.011545341 0.019478593 3.234812e-39
-0.070902556 -0.0093351789 0.016581882 6.3680411e-39
-0.063807622 -0.0067518866 0.01668207 3.1419003e-39
-0.055404581 -0.0046363883 0.017482998 9.2667027e-40
-0.045512874 -0.004533608 0.018418418 9.6182324e-41
-0.036123097 -0.0039822678 0.019158319 4.7027576e-42
-0.02740477 -0.0022282479 0.01965151 4.7027576e-42
0.03872535 -0.0078272624 0.018619198 7.0064923e-45
0.044463709 -0.007041621 0.018145222 4.6159374e-39
0.050394438 -0.0080255335 0.019618545 3.7876187e-39
-0.060174134 0.00023594129 0.01627467 1.0150217e-38
-0.053297855 0.0030115268 0.016189631 5.354957e-39
-0.04522505 0.0053459723 0.017315196 1.7571554e-39
-0.035461511 0.0055630924 0.018411417 9.582219e-41
-0.025906555 0.0062231058 0.018964581 9.6542458e-41
-0.01748166 0.0080116866 0.01953532 3.6223565e-42
-0.0084403511 0.0097145233 0.019986613 2.1804204e-42
-0.042889044 0.012343952 0.016177142 6.6467776e-39
-0.035005096 0.015186302 0.017110426 2.9571405e-39
-0.025232689 0.01552599 0.018141024 9.5823592e-41
-0.015505095 0.016234601 0.018557249 3.6251591e-42
-0.0057459082 0.017282287 0.018826602 3.6251591e-42
0.0031757934 0.018413814 0.019262474 2.9048917e-42
0.010556049 0.019996079 0.019930987 9.4027127e-41
-0.031985778 0.021918822 0.016349316 9.0445814e-39
-0.024555255 0.024845218 0.016474389 4.9850899e-39
-0.015051645 0.025394866 0.016760558 1.8765909e-40
-0.0051612514 0.025431132 0.017075114 2.9034904e-42
0.0045087896 0.025917336 0.01762219 2.5419554e-42
0.013268775 0.027114794 0.018653281 2.1804204e-42
0.02041183 0.029166458 0.01969851 2.5391528e-42
-0.021586055 0.031143434 0.014612896 1.3377057e-38
-0.01414994 0.033813156 0.014519961 6.9201135e-39
-0.0050553791 0.035019182 0.015502115 6.4936171e-40
0.0048999041 0.035160404 0.016497819 4.3496304e-42
0.014371431 0.035513397 0.017451633 2.5419554e-42
0.022583203 0.036856696 0.018796153 9.4738987e-41
0.030893385 0.03907796 0.019691601 1.1070258e-42
-0.01083712 0.040880632 0.013326338 1.7526938e-38
-0.0037788777 0.043571137 0.013998236 9.226086e-39
0.0050558541 0.045059714 0.015241678 1.1107014e-39
0.014767351 0.045192137 0.016669398 2.544758e-42
0.023937263 0.045610536 0.018097226 2.5419554e-42
0.033178337 0.046889022 0.019317258 1.821688e-42
0.041740756 0.04919247 0.019753369 7.3708299e-43
-0.00072454609 0.050683532 0.01418746 1.7618779e-38
0.0066317352 0.053312298 0.014472455 1.0332435e-38
0.014843503 0.055131454 0.01581743 1.7546303e-39
0.024411982 0.055231359 0.017707258 3.2664267e-42
0.034265429 0.055654012 0.018708393 2.5433567e-42
0.043340262 0.056218632 0.019318597 2.906293e-42
0.051126547 0.058777645 0.019846641 4.3412226e-42
0.0093178684 0.060378704 0.015686698 1.7619497e-38
0.016847812 0.062909558 0.015875645 8.8587497e-39
0.024641827 0.065274686 0.016592417 1.664601e-39
0.034513403 0.065456077 0.017875206 3.2706306e-42
0.044494979 0.065589562 0.018685309 2.9048917e-42
0.053755376 0.066811241 0.019252831 9.4740388e-41
0.061869193 0.068384215 0.019678308 2.906293e-42
0.027024258 0.072668843 0.015834326 9.319732e-39
0.034898546 0.075028978 0.016416704 2.6791145e-39
0.044645436 0.075505197 0.017482525 9.5463458e-41
0.054702178 0.075629041 0.018347304 2.544758e-42
0.064309962 0.076123185 0.018895144 2.183223e-42
0.073544398 0.077386804 0.01929675 2.183223e-42
0.082118861 0.078377292 0.019804567 2.1790191e-42
0.037384063 0.082373455 0.016098177 1.1348036e-38
0.045271724 0.084925272 0.015965233 3.0478998e-39
0.054676931 0.085523829 0.017009785 9.5823592e-41
0.064622514 0.085575543 0.017914459 2.9034904e-42
0.074298471 0.085824803 0.018561684 2.544758e-42
0.084030367 0.086531162 0.019094538 2.5461593e-42
0.092774644 0.088364817 0.019496597 1.4671595e-42
0.047900114 0.092122212 0.015514221 1.1624624e-38
0.055364277 0.094620451 0.015722249 3.6017939e-39
0.064691007 0.095406756 0.016631383 1.8802202e-40
0.074638903 0.095411666 0.017604513 3.267828e-42
0.084640592 0.09551131 0.018400647 2.5433567e-42
0.094642267 0.096005298 0.01891941 1.821688e-42
0.10442799 0.097152486 0.019191533 2.5503632e-42
0.11371829 0.096302614 0.019215435 1.758261e-39
0.1206565 0.092776403 0.019491548 9.4123214e-39
0.058138885 0.1017575 0.016378367 1.3929515e-38
0.065598324 0.10420522 0.015746342 4.0624133e-39
0.074743792 0.10528286 0.016325448 1.8766329e-40
0.084737949 0.10547803 0.017205041 2.9090956e-42
0.09474583 0.10552635 0.017849687 1.8730456e-40
0.10352334 0.10316667 0.018442078 1.1121545e-39
0.11048625 0.10077679 0.017758667 9.319746e-39
0.068423033 0.11107562 0.01657345 1.466672e-38
0.075627901 0.11209171 0.016029846 4.4308413e-39
0.084634073 0.11249707 0.016236309 1.6638892e-39
0.092912845 0.11146458 0.016867386 2.1263107e-39
-0.042614371 -0.10089529 0.027723417 3.0529585e-39
-0.036048263 -0.10084784 0.027968755 2.2239069e-39
-0.028612217 -0.1003177 0.027934097 8.3992246e-39
-0.011604863 -0.10256441 0.028915584 7.4949149e-40
-0.0086951563 -0.10061792 0.028849732 4.7363187e-40
-0.053067096 -0.093021691 0.027381595 1.5767368e-39
-0.045969125 -0.096954875 0.028299484 6.5405466e-40
-0.034839038 -0.09872213 0.028615726 1.9307511e-40
-0.024996441 -0.096820645 0.028529966 1.5778158e-39
-0.016595485 -0.092481293 0.028344387 3.2380644e-39
-0.0043354994 -0.095364183 0.028792942 1.3023107e-39
0.0013616894 -0.09119226 0.028497767 2.6838187e-39
-0.061015215 -0.081764385 0.025990352 3.8819849e-39
-0.056029931 -0.084978759 0.027684657 1.1128692e-39
-0.046185035 -0.084085517 0.029318942 7.2335027e-42
-0.038194373 -0.08287672 0.029684128 6.8691651e-42
-0.012673753 -0.08827395 0.028551744 1.4856258e-39
-0.0058676112 -0.083756246 0.028828703 2.2239041e-39
0.0056473734 -0.085310251 0.028896334 1.4867006e-39
0.011323396 -0.08114095 0.028670993 3.0540291e-39
-0.063524745 -0.074245386 0.025876502 3.0497019e-39
-0.055416469 -0.074629046 0.028011985 9.6908197e-41
-0.045532793 -0.074321799 0.028642308 6.1474964e-42
-0.037026703 -0.073292494 0.02929013 7.5894325e-42
-0.029614788 -0.072964668 0.029959815 2.8238406e-40
-0.0013717394 -0.079239883 0.028962126 3.7963137e-40
0.0052820537 -0.075392358 0.028580932 1.5810528e-39
0.014601692 -0.074572876 0.028817303 1.5799738e-39
0.021090187 -0.0714029 0.02845718 3.1469436e-39
-0.071568698 -0.062810779 0.023851726 7.4765327e-39
-0.065192081 -0.064820655 0.026109494 2.0337437e-39
-0.055291783 -0.064724609 0.027303269 5.0684965e-42
-0.045379251 -0.064677753 0.027998887 9.7264126e-41
-0.035526745 -0.064223737 0.028673943 9.8706063e-41
-0.026334684 -0.062761739 0.029229974 9.870326e-41
-0.017720681 -0.061539378 0.029681608 7.2250949e-42
0.016128223 -0.067135662 0.028658289 2.9102587e-40
0.025028788 -0.064894043 0.028890189 2.2257006e-39
0.031412028 -0.061434936 0.028655332 2.5022861e-39
-0.080541812 -0.050935607 0.022739828 1.6973406e-38
-0.073695414 -0.05451376 0.024058886 4.892174e-39
-0.065058753 -0.054922841 0.025736487 1.8946396e-40
-0.055206627 -0.05484895 0.026613206 9.7265528e-41
-0.045272104 -0.054817554 0.027248573 1.8982129e-40
-0.035246771 -0.054636132 0.027788557 9.7982993e-41
-0.02543517 -0.054303143 0.028371418 9.7981591e-41
-0.016107721 -0.053666551 0.028979061 5.4230251e-42
-0.0079898015 -0.052174602 0.029605066 5.4216238e-42
0.027827645 -0.058268093 0.029324174 1.0260714e-39
0.035502106 -0.054814782 0.028799785 2.5033679e-39
0.041450057 -0.051418077 0.028803654 2.4115324e-39
-0.081669278 -0.044048112 0.022507882 1.15317e-38
-0.074619159 -0.045061987 0.024173057 1.8486322e-39
-0.0649997 -0.044984475 0.0250997 2.8165959e-40
-0.05522006 -0.044899765 0.025839282 1.8982269e-40
-0.045210347 -0.04484345 0.026458124 1.9018283e-40
-0.035135817 -0.044772599 0.026925562 1.9017862e-40
-0.025294626 -0.044702183 0.027474506 9.7982993e-41
-0.015516124 -0.044442095 0.028231228 9.798019e-41
-0.0063451347 -0.04405313 0.029100874 5.4216238e-42
0.0015591419 -0.042358954 0.029582852 5.4286303e-42
0.038908903 -0.049285773 0.027798524 1.4924445e-39
0.045486964 -0.045867328 0.02812637 1.1207865e-39
0.052195907 -0.041616891 0.027920878 2.226418e-39
-0.082221173 -0.035365332 0.022303853 7.7513189e-39
-0.074647382 -0.035158154 0.023612062 1.2032614e-39
-0.0648866 -0.035108466 0.024074992 3.7421535e-40
-0.055060539 -0.035026912 0.024679026 1.9018423e-40
-0.045107979 -0.034859125 0.02555236 1.8946256e-40
-0.035065819 -0.034783371 0.026232254 1.8982129e-40
-0.025117967 -0.034746289 0.026842467 9.7982993e-41
-0.015294033 -0.034663912 0.027537107 9.7621458e-41
-0.0057716942 -0.034338541 0.028394185 9.7259923e-41
0.0033546663 -0.033616833 0.029227233 9.7259923e-41
0.011994623 -0.03075026 0.029760698 3.9810889e-42
0.049928762 -0.039739661 0.029848384 3.8717596e-40
0.056529544 -0.036851715 0.027608961 9.3603374e-40
0.062887266 -0.032087356 0.027942454 1.7650797e-39
-0.081307396 -0.026917256 0.021870006 8.6736325e-39
-0.074540243 -0.02536777 0.022685623 3.2322869e-39
-0.064849302 -0.025203973 0.023127496 7.4372094e-40
-0.054952353 -0.025130376 0.023543125 2.8237986e-40
-0.045008805 -0.025047695 0.02427619 2.8201972e-40
-0.035018694 -0.025009157 0.025361592 1.9018283e-40
-0.025053604 -0.024873869 0.026221089 1.8946116e-40
-0.015295707 -0.024749104 0.026943389 9.762426e-41
-0.005398293 -0.024701444 0.027663628 9.7265528e-41
0.0043736147 -0.024421137 0.028558575 9.6179521e-41
0.013886088 -0.02335749 0.029292133 9.6176719e-41
0.022599116 -0.021813734 0.029594719 2.8021485e-40
0.038077995 -0.020720633 0.029189536 9.4014515e-41
0.044342183 -0.020791352 0.02834429 9.292991e-41
0.050643049 -0.020332726 0.029219847 8.4077908e-45
0.067299761 -0.027114866 0.027572114 5.6760996e-40
0.072996594 -0.023201078 0.027991926 1.1200677e-39
-0.073136181 -0.016896976 0.022001067 5.9992418e-39
-0.064732939 -0.01522781 0.022304118 3.5095926e-39
-0.054841254 -0.015273127 0.022786561 8.3591517e-40
-0.044977065 -0.015228634 0.023152817 2.8273999e-40
-0.034911498 -0.015133453 0.023944842 2.8237846e-40
-0.024908952 -0.015109751 0.025124442 1.8982269e-40
-0.015186435 -0.014980398 0.026355525 1.8982269e-40
-0.0052872854 -0.014904369 0.02710853 9.7265528e-41
0.004689957 -0.014741565 0.027848646 9.6541056e-41
0.014618701 -0.014394745 0.02853098 3.2622228e-42
0.024781592 -0.013771669 0.0287764 2.9020891e-42
0.036251124 -0.013947818 0.026476633 5.5462412e-40
0.045017797 -0.014936903 0.024995003 3.8761989e-39
0.051918074 -0.013500804 0.026797233 1.6613332e-39
0.07706885 -0.016970148 0.027713217 5.6760996e-40
0.082852632 -0.01329388 0.028441986 5.6869596e-40
0.091616094 -0.011638187 0.029048456 2.9618475e-39
-0.062858447 -0.0076141912 0.02184392 7.6587659e-39
-0.054660887 -0.0054887105 0.022180503 4.5237474e-39
-0.045024168 -0.0051541026 0.022528252 1.1121433e-39
-0.034788623 -0.0052247518 0.022908065 2.8273859e-40
-0.02493755 -0.0051492061 0.023763867 2.8237846e-40
-0.015075375 -0.005140984 0.025143247 1.8982269e-40
-0.0051732296 -0.0050746235 0.02644714 1.8982129e-40
0.004900754 -0.0048654852 0.027290784 9.7625661e-41
0.014916591 -0.0047105541 0.027638678 4.3468278e-42
0.024945742 -0.0046691475 0.02783636 2.9034904e-42
0.035653587 -0.0052582868 0.026306072 2.7839877e-40
0.044937275 -0.0050155567 0.025070816 1.7535288e-39
0.052207351 -0.0055898651 0.026929019 7.3865665e-40
0.085925408 -0.0071947151 0.028611911 5.6797429e-40
0.093873784 -0.0048298165 0.029089393 2.903084e-40
0.10242884 -0.0021901275 0.029510118 2.8923081e-40
-0.052455369 0.0020956255 0.021813925 1.1439507e-38
-0.044327937 0.0042740563 0.022148818 5.814489e-39
-0.034826346 0.0049974057 0.022610882 1.3894519e-39
-0.024869526 0.0049494496 0.022823311 3.7493842e-40
-0.014995093 0.0050191069 0.023611456 1.8982269e-40
-0.0051050954 0.0051798518 0.024848422 1.8982269e-40
0.0050728596 0.005199627 0.026178481 1.9018142e-40
0.014945696 0.0052784709 0.026864111 9.7264126e-41
0.024897322 0.0052562924 0.027132262 9.5462057e-41
0.034869634 0.0050375788 0.027308894 3.2650254e-42
0.044604573 0.0045005926 0.027549269 9.5096318e-41
0.053153537 0.0051841522 0.028827038 9.5457853e-41
0.061623979 0.0093411477 0.029842257 9.5101923e-41
0.096645519 0.0030166202 0.028994735 2.8994547e-40
0.1048491 0.0050824778 0.029356044 5.6581629e-40
0.11491301 0.0068018446 0.028932933 1.3952308e-39
-0.04184676 0.011619711 0.021439143 1.2638412e-38
-0.033999506 0.013698963 0.02231776 6.4598584e-39
-0.024824938 0.014930857 0.022746854 1.7582358e-39
-0.015008709 0.014874035 0.022611288 2.8310153e-40
-0.0049687936 0.014750569 0.023157738 1.9018283e-40
0.005148822 0.014999114 0.024131868 9.7625661e-41
0.015046935 0.015116728 0.025672108 1.8946116e-40
0.024819918 0.015191422 0.026588986 9.6543859e-41
0.034816399 0.015235754 0.027022196 9.5460655e-41
0.044730321 0.015249124 0.027620666 9.4738987e-41
0.054386783 0.015605738 0.028466202 9.4377452e-41
0.063476972 0.016706353 0.029228622 1.8244906e-42
0.072013758 0.018603295 0.029739227 2.1930321e-42
0.10671538 0.01303788 0.029447393 1.1916642e-41
0.11433208 0.016309762 0.029361483 1.0376335e-40
0.12359685 0.013924733 0.028832048 2.5012211e-39
0.13037439 0.017934199 0.0295341 1.0060563e-38
-0.031676617 0.020940222 0.02065314 1.4852903e-38
-0.023652036 0.02276035 0.022357859 6.7364467e-39
-0.015185568 0.024397697 0.022055548 3.3248426e-39
-0.0052188896 0.024081297 0.021471513 4.6641098e-40
0.0056508919 0.023746422 0.022146532 1.8837795e-40
0.015361043 0.024602998 0.02361797 1.8910102e-40
0.024922626 0.024974616 0.025353659 9.7264126e-41
0.034781974 0.025150239 0.026382245 9.6903993e-41
0.044876579 0.025195375 0.026957897 9.5820789e-41
0.054650243 0.025307497 0.027638143 9.509912e-41
0.064339668 0.025570944 0.028582443 9.4740388e-41
0.073467799 0.026893619 0.029215537 9.4741789e-41
0.083340637 0.028947575 0.029685337 2.1902295e-42
0.11737164 0.022577599 0.029003751 1.9632051e-40
0.12292013 0.027789542 0.028987706 2.8887347e-40
0.13648298 0.024905374 0.02940492 1.4870733e-39
0.14030534 0.027530838 0.029627781 7.4801536e-39
-0.012810041 0.031950004 0.0216043 9.9622119e-39
-0.0048351218 0.034587279 0.02123265 4.2460829e-39
0.0049300836 0.035187863 0.020782726 4.6785572e-40
0.016157107 0.034262076 0.0219958 1.8909962e-40
0.025146417 0.03476901 0.023799658 1.9018283e-40
0.034924913 0.034949068 0.025261026 1.8982129e-40
0.044927061 0.035103682 0.026235791 1.8910102e-40
0.054804545 0.03520162 0.026874222 9.5823592e-41
0.064587988 0.035338797 0.0276346 9.5463458e-41
0.074463874 0.035591587 0.028381879 9.4378853e-41
0.084308684 0.036276929 0.028981993 1.8230893e-42
0.093128368 0.037065197 0.029414281 2.1846243e-42
0.10256843 0.039895706 0.029815612 2.2056438e-42
0.12744957 0.03274361 0.028940698 3.8178657e-40
0.13222726 0.037416972 0.028983856 2.8959094e-40
-0.0018180388 0.042121716 0.021306554 1.3005385e-38
0.0054011499 0.04427385 0.021150189 5.1680406e-39
0.015690461 0.045184523 0.0214701 3.7530136e-40
0.02540962 0.044937052 0.022950388 1.9126603e-40
0.035028353 0.044941105 0.023931229 1.9054296e-40
0.045075607 0.045096382 0.025154676 1.9018283e-40
0.054965843 0.04522749 0.026132381 1.9018283e-40
0.064756699 0.045302909 0.02682096 1.8838076e-40
0.074713483 0.04542112 0.027422806 9.5100522e-41
0.084746622 0.045546133 0.028050497 2.183223e-42
0.094393224 0.046050269 0.028650686 1.821688e-42
0.10373082 0.046879292 0.029278442 1.8244906e-42
0.11275247 0.048363287 0.029676922 1.1028219e-42
0.13742894 0.043209422 0.029168729 3.8142503e-40
0.1413596 0.047818851 0.029039707 1.0339901e-40
0.0087765614 0.051341698 0.021315007 1.0054053e-38
0.016421212 0.054227099 0.021980504 3.1400927e-39
0.025276784 0.055073842 0.023014018 5.6113315e-40
0.03503409 0.055005938 0.023384634 1.919877e-40
0.045146912 0.054971855 0.023963351 1.9126463e-40
0.055068128 0.055019356 0.025052615 1.9054296e-40
0.064829081 0.055182289 0.025983959 1.8982269e-40
0.07477323 0.055238828 0.026580716 1.8873949e-40
0.08485546 0.055339087 0.027172688 9.5100522e-41
0.094753727 0.055456199 0.027743105 2.5433567e-42
0.10446057 0.055708386 0.028442273 1.8230893e-42
0.11417188 0.056482125 0.028959842 2.1860256e-42
0.12366068 0.057756938 0.029482976 1.4615543e-42
0.13187444 0.056971956 0.029877096 1.1042232e-42
0.14406417 0.055968985 0.028906401 2.8526933e-40
0.017859012 0.063420512 0.021210153 1.134659e-38
0.025734236 0.064192094 0.022743721 2.9564231e-39
0.035116319 0.064754754 0.023208411 5.6077302e-40
0.045167774 0.064875782 0.023346649 1.919877e-40
0.055195864 0.064876027 0.023916084 2.8382039e-40
0.064940043 0.064985022 0.024773192 1.9090309e-40
0.074841693 0.065057449 0.025711393 1.8982269e-40
0.084926739 0.065155849 0.026368838 9.6903993e-41
0.094875 0.065142162 0.026964068 9.5462057e-41
0.10473527 0.065289661 0.027558824 9.5103324e-41
0.11456912 0.065484308 0.028152345 2.1846243e-42
0.12431972 0.065978609 0.028756427 1.8244906e-42
0.13488531 0.066736706 0.029079152 2.1846243e-42
0.14318968 0.065368518 0.028348323 2.8238686e-40
0.027016224 0.072323918 0.021409135 1.0977806e-38
0.035753772 0.073961258 0.022661788 3.3255657e-39
0.045330122 0.074754074 0.023304634 9.2955834e-40
0.055120945 0.07485956 0.023490312 2.849036e-40
0.064988337 0.07484547 0.023928318 1.9162616e-40
0.075017922 0.07488779 0.024571406 1.9054436e-40
0.084994383 0.075059041 0.025386067 1.8982269e-40
0.094890043 0.075162306 0.026119316 9.6906795e-41
0.10476821 0.075189576 0.026758993 9.5462057e-41
0.11476401 0.075284563 0.027213706 2.9048917e-42
0.12489206 0.0754366 0.027701236 2.5475606e-42
0.13471489 0.07531517 0.027473023 7.4192448e-40
0.14140435 0.071910925 0.027417095 1.2976304e-39
0.037074838 0.082318224 0.021289922 1.0701222e-38
0.045911893 0.083995774 0.022540845 3.6939895e-39
0.055286113 0.084619492 0.023388548 1.2061438e-39
0.065003701 0.084902324 0.023488188 2.8454486e-40
0.075083405 0.084945232 0.024001889 1.9162756e-40
0.085133016 0.085000701 0.024593655 1.9126463e-40
0.095005177 0.085161 0.025225073 9.7987196e-41
0.10483526 0.085275456 0.025751296 9.6543859e-41
0.11481528 0.085296683 0.026202962 1.8802343e-40
0.12422601 0.08436916 0.026119949 1.940832e-39
0.13183518 0.081351481 0.025860677 2.4972526e-39
0.04753444 0.0922006 0.021377226 1.0424273e-38
0.055854905 0.094300181 0.022105685 3.6939867e-39
0.065327302 0.094555825 0.02327586 1.2983395e-39
0.075094208 0.095011555 0.023597701 4.6893612e-40
0.085176647 0.09500286 0.024287252 1.919891e-40
0.095053613 0.094994493 0.024746627 1.909059e-40
0.10483148 0.094883941 0.024877705 1.0188715e-39
0.11374521 0.093342096 0.024474774 3.7851089e-39
0.12121216 0.090927795 0.02299281 5.8159491e-39
0.057696618 0.10200889 0.021582093 1.2360747e-38
0.065628156 0.10415275 0.021939287 3.6939881e-39
0.075435579 0.1042431 0.022866538 1.0217526e-39
0.085247934 0.10436366 0.023499273 9.2919821e-40
0.094804563 0.10409509 0.023914548 2.2185035e-39
0.103125 0.10241385 0.023417717 6.3680327e-39
0.11015251 0.10003486 0.021599934 1.3839842e-38
0.068209991 0.11110229 0.021911262 1.1623185e-38
0.075435251 0.11238234 0.022001643 6.9201247e-39
0.084937997 0.11207616 0.022254152 5.9985327e-39
0.092407145 0.11098341 0.021888917 9.687081e-39
-0.042094249 -0.10086296 0.03383217 9.966179e-39
-0.034847628 -0.10140686 0.034763135 8.674364e-39
-0.025772106 -0.101524 0.035258949 5.8159365e-39
-0.015312803 -0.10210649 0.033795033 1.2047117e-39
-0.0094772186 -0.10052754 0.031845186 1.6681982e-39
-0.052150711 -0.092790507 0.032853942 7.0137553e-39
-0.04460194 -0.094685093 0.034282688 3.0478998e-39
-0.034920763 -0.09508992 0.035024971 3.7349929e-40
-0.025006751 -0.094997108 0.03521179 1.5734872e-39
-0.01548674 -0.094317921 0.035277776 3.0486187e-39
-0.0062594279 -0.093678251 0.033669069 1.2969003e-39
0.0010276581 -0.090971373 0.031977028 2.591581e-39
-0.060673527 -0.081151776 0.031358484 1.1994486e-38
-0.053925019 -0.084606029 0.033077419 4.8003357e-39
-0.044974241 -0.084988028 0.034591105 6.5008478e-40
-0.035042871 -0.084997684 0.035161033 9.7266929e-41
-0.025036287 -0.085031494 0.035691328 9.7625661e-41
-0.014926012 -0.085273959 0.03565431 7.4336081e-40
-0.0055347211 -0.084436953 0.035212688 2.8645862e-39
0.0037071635 -0.083643243 0.033361964 1.8504342e-39
0.01110452 -0.080900848 0.032139435 1.9451354e-39
-0.062109206 -0.073662095 0.031782493 1.0978527e-38
-0.054581024 -0.075034834 0.033259667 1.8489923e-39
-0.044933572 -0.075147204 0.034134798 2.8129946e-40
-0.034906611 -0.075038232 0.034734886 1.898255e-40
-0.025059778 -0.074827015 0.035404112 9.7628464e-41
-0.01512678 -0.074857324 0.035823103 9.7266929e-41
-0.0049508614 -0.075059786 0.035805047 3.7385662e-40
0.0048181685 -0.074672595 0.035086945 2.6798362e-39
0.013735835 -0.073649108 0.033605095 2.5883594e-39
0.021024471 -0.071071856 0.032044332 1.3001331e-39
-0.070437036 -0.062228616 0.030324398 1.595745e-38
-0.063520215 -0.065046929 0.031619441 5.8137715e-39
-0.054811694 -0.065215982 0.032483403 6.4972605e-40
-0.044883773 -0.065176792 0.03300247 2.8130086e-40
-0.034774575 -0.065200545 0.033530012 1.9018563e-40
-0.024813868 -0.065064982 0.034423716 1.8982409e-40
-0.015132512 -0.064867668 0.035268832 9.7627063e-41
-0.005144842 -0.064831331 0.035722133 9.7265528e-41
0.0050702114 -0.064957939 0.035914645 1.8946256e-40
0.014938267 -0.064923696 0.035362281 2.4028878e-39
0.023797549 -0.063647516 0.033637073 4.1560481e-39
0.031283312 -0.061158754 0.031950936 3.0514928e-39
-0.071307935 -0.054644514 0.030509327 1.1438427e-38
-0.064053856 -0.0551342 0.031309277 2.5858399e-39
-0.054800961 -0.055598829 0.031643994 7.4264054e-40
-0.044886805 -0.055410437 0.031966735 3.7457689e-40
-0.034732532 -0.055324681 0.03254788 2.8165959e-40
-0.02473703 -0.055206623 0.03327902 2.8165959e-40
-0.014937595 -0.055209201 0.034117211 1.9018423e-40
-0.0050323224 -0.05507024 0.03499683 9.7627063e-41
0.0049654329 -0.054987047 0.03569359 9.7625661e-41
0.015024515 -0.055040009 0.035974868 1.8946256e-40
0.024902305 -0.055055548 0.035598796 1.6653213e-39
0.033990577 -0.053908043 0.033776172 3.7876243e-39
0.041505259 -0.051471233 0.032516636 3.6975838e-39
-0.071373172 -0.046045452 0.030402744 4.6137948e-39
-0.064606614 -0.047270123 0.030625686 2.2177748e-39
-0.054415829 -0.046426855 0.030761749 3.7421816e-40
-0.044492058 -0.045822013 0.03108063 2.8130086e-40
-0.034618363 -0.045533735 0.031683467 3.7349368e-40
-0.024697246 -0.045394201 0.032286558 2.8165959e-40
-0.014855203 -0.045377411 0.03299126 2.8201972e-40
-0.0049028494 -0.04528692 0.033801161 1.9018423e-40
0.005094843 -0.045144614 0.034875158 9.7627063e-41
0.014988472 -0.045019016 0.035682619 9.7265528e-41
0.024878617 -0.045013763 0.035956349 9.7265528e-41
0.034885518 -0.045049369 0.035918698 8.3555784e-40
0.044395939 -0.044199727 0.034319758 3.3270049e-39
0.051729109 -0.041463409 0.03288601 4.0660104e-39
-0.052038666 -0.038870778 0.03021124 2.8310713e-40
-0.043381549 -0.037168503 0.030484393 9.5823592e-41
-0.034201626 -0.036101222 0.030806229 3.7313495e-40
-0.024634963 -0.035600781 0.031260312 2.8238126e-40
-0.014795336 -0.035449915 0.031944316 2.8201972e-40
-0.0048004845 -0.035341203 0.032718223 2.8165959e-40
0.0052070799 -0.035096809 0.033632651 2.8273999e-40
0.015124844 -0.03503494 0.034743946 1.8982409e-40
0.024924546 -0.034905467 0.035599407 9.7625661e-41
0.03490153 -0.03486092 0.035926253 9.7264126e-41
0.045052715 -0.034845848 0.036041588 3.7421675e-40
0.054641441 -0.034407746 0.034956049 3.1418961e-39
0.062395066 -0.031839158 0.033294473 3.6050351e-39
-0.032748081 -0.028578814 0.030407444 1.1157447e-39
-0.023865499 -0.026980085 0.030499967 5.5968982e-40
-0.014291835 -0.025576849 0.03104955 4.6713265e-40
-0.004734064 -0.02532196 0.031703029 2.8274139e-40
0.0053760987 -0.025187718 0.032531086 2.8273999e-40
0.015216027 -0.025135588 0.033368036 2.8237846e-40
0.025077928 -0.024975773 0.034680769 1.9018423e-40
0.03490331 -0.024973471 0.035176639 9.7265528e-41
0.045073602 -0.024843335 0.035347898 3.7313215e-40
0.054962624 -0.024842011 0.035938758 1.8910523e-40
0.064856239 -0.024841631 0.035301391 2.4036094e-39
0.073012866 -0.022613915 0.033836551 3.6046749e-39
-0.021267815 -0.019342352 0.030072024 2.8635814e-40
-0.01306681 -0.017153053 0.030446775 5.6077162e-40
-0.0044189803 -0.015839214 0.030815555 4.6821445e-40
0.0054750443 -0.015578371 0.031454101 2.8274139e-40
0.015393915 -0.015413701 0.032379329 2.8201972e-40
0.025029005 -0.015276114 0.033496782 1.8982409e-40
0.033905942 -0.016198507 0.032786693 8.341075e-40
0.046354931 -0.01730701 0.033164002 1.5687803e-39
0.0551516 -0.015129012 0.034941744 7.411902e-40
0.064858876 -0.015010604 0.036020119 9.6908197e-41
0.074989669 -0.015068972 0.035479937 1.4812916e-39
0.083742641 -0.013296202 0.034557145 3.4192033e-39
0.091185614 -0.010967608 0.032940559 2.497254e-39
-0.010078641 -0.0092773158 0.030038916 9.7265528e-41
-0.0030303292 -0.008171116 0.030382849 1.0221071e-39
0.0060797459 -0.0062476564 0.03063936 4.6677112e-40
0.015677549 -0.0055030352 0.031426661 3.7457689e-40
0.025068184 -0.005350661 0.032532267 2.8201972e-40
0.03361873 -0.0043648439 0.031806227 1.2958045e-39
0.046573319 -0.0027616008 0.031702019 2.776785e-40
0.055470638 -0.0050742109 0.034175958 3.7348808e-40
0.064873047 -0.0050081625 0.035733316 9.7265528e-41
0.074922234 -0.005010284 0.036159653 9.7266929e-41
0.085025229 -0.0050461427 0.03572176 1.2043432e-39
0.094227135 -0.0042643263 0.035233386 3.1415346e-39
0.10229108 -0.0016702648 0.03393561 2.3132173e-39
0.0077359458 0.0020872315 0.030243432 8.3663404e-40
0.016418897 0.0041049873 0.03095299 1.2057781e-39
0.025365504 0.0043385215 0.031573951 2.8274139e-40
0.035027619 0.0050316276 0.03198915 5.5932828e-40
0.045390271 0.0050810431 0.032476425 7.4407827e-40
0.055295035 0.0049636723 0.033635743 2.8237986e-40
0.064971983 0.004936717 0.034936264 9.7627063e-41
0.074892089 0.005094023 0.035829745 9.7266929e-41
0.085015915 0.0051065725 0.036194984 9.6906795e-41
0.095027685 0.0050445241 0.035782468 7.4300348e-40
0.10459542 0.0053919074 0.035908252 3.2333701e-39
0.11336429 0.007442568 0.03473505 2.7745513e-39
0.12047527 0.0094871782 0.03384874 1.263951e-38
0.017725877 0.011776746 0.030393032 1.5774459e-39
0.025975062 0.013849126 0.030635213 5.6149049e-40
0.035493549 0.014517263 0.031322096 2.838246e-40
0.045336079 0.014662783 0.03199603 2.8346306e-40
0.05521889 0.014804425 0.032721903 2.8273999e-40
0.065096699 0.01489918 0.03353237 1.9018423e-40
0.075020716 0.014986793 0.034806523 9.7988598e-41
0.085021384 0.01512685 0.035826549 9.7266929e-41
0.09504801 0.015123142 0.036165148 9.6906795e-41
0.10494132 0.015024967 0.035862081 6.5080785e-40
0.11454746 0.015387979 0.036194056 3.1408157e-39
0.12394061 0.016277375 0.035364047 3.511759e-39
0.1316985 0.018876096 0.034385517 2.9603789e-39
0.028015386 0.021779047 0.030236581 3.7746076e-40
0.036398765 0.023712017 0.030554416 4.6929766e-40
0.045596547 0.024453618 0.031138567 3.7674049e-40
0.055307634 0.024591625 0.0318969 2.8418193e-40
0.065123215 0.024730852 0.032569088 1.9090449e-40
0.075061955 0.024776429 0.033401422 1.9054576e-40
0.085194506 0.024906641 0.034558713 9.7988598e-41
0.095016189 0.02502005 0.03557878 9.7266929e-41
0.10488948 0.025003996 0.035961207 9.6905394e-41
0.11498338 0.024980599 0.03574976 4.6677532e-40
0.12467113 0.025328439 0.036466908 2.7723919e-39
0.13422485 0.025591835 0.036448862 4.6163059e-39
0.14238821 0.027454218 0.034904081 2.1295379e-39
0.037099764 0.03143619 0.030159933 1.3944966e-39
0.046375018 0.033592392 0.030535422 4.7073679e-40
0.05556095 0.034424949 0.031158075 3.7746076e-40
0.065236121 0.034609269 0.031802602 3.7674049e-40
0.075148731 0.03467283 0.032576531 1.9126603e-40
0.085271537 0.034777571 0.033344906 1.9090449e-40
0.095145524 0.034837861 0.034377821 9.7988598e-41
0.10491364 0.03493081 0.035283003 9.7266929e-41
0.11490573 0.035000384 0.035801299 9.6546662e-41
0.12506236 0.035029899 0.035603717 4.6605365e-40
0.13448599 0.035498708 0.036428705 2.1266638e-39
0.14301987 0.035853911 0.037105598 5.538628e-39
0.048091132 0.042205293 0.030276129 4.7326193e-40
0.05592059 0.043483309 0.030602187 3.789041e-40
0.065540738 0.044371635 0.031081766 4.7037806e-40
0.075320236 0.044643566 0.031703919 2.8526373e-40
0.085341401 0.044815492 0.032555364 2.8382319e-40
0.095243923 0.044880111 0.033363849 1.909059e-40
0.10506859 0.044946674 0.034226369 9.7989999e-41
0.11498709 0.045072634 0.035082798 9.7627063e-41
0.12501679 0.045142617 0.035555474 9.654526e-41
0.13495947 0.045147993 0.035376165 2.8130086e-40
0.14383185 0.045569602 0.036429334 3.0500648e-39
0.15025726 0.047491383 0.037596811 1.5220251e-38
0.05820081 0.05143315 0.030282045 3.7926423e-40
0.066389404 0.053401746 0.030519811 2.870672e-40
0.075715229 0.054502267 0.031056182 3.7854256e-40
0.085425824 0.05467758 0.031777248 2.8526653e-40
0.095297866 0.054840714 0.032629363 2.8418333e-40
0.10510087 0.054857332 0.033370938 1.9126603e-40
0.11510963 0.054944433 0.034142371 1.9054576e-40
0.12505139 0.055076011 0.034946635 9.7627063e-41
0.13504407 0.05510005 0.035217971 4.3510317e-42
0.14362885 0.05498356 0.034961674 1.7582456e-39
0.1503347 0.05108773 0.037413571 1.7342551e-38
0.06853725 0.061367068 0.030259736 1.120198e-41
0.076532058 0.063582756 0.030556697 1.9487157e-40
0.085794948 0.06435921 0.031259086 3.789027e-40
0.095336735 0.064603634 0.031913858 3.7782089e-40
0.10516225 0.064684361 0.032595333 2.84905e-40
0.11518582 0.064740941 0.033454202 1.9162756e-40
0.12517762 0.064833611 0.034368873 9.8350133e-41
0.13505268 0.064823531 0.034613688 5.5861082e-40
0.1425548 0.064033762 0.033772036 3.4166908e-39
0.07857202 0.071944818 0.030253377 1.952317e-40
0.086354867 0.073999919 0.030758983 3.7926423e-40
0.095486514 0.074300952 0.031277161 3.7962437e-40
0.10530297 0.074594542 0.031885955 1.9379117e-40
0.11522576 0.07477466 0.032909263 1.9235064e-40
0.12506875 0.074554831 0.033446923 1.2972619e-39
0.13410966 0.073491074 0.033302527 3.4166866e-39
0.14118841 0.071167454 0.032688197 4.7999867e-39
0.08825466 0.081655361 0.030482475 4.718228e-40
0.096250817 0.084304012 0.030729646 2.8743014e-40
0.105484 0.084703043 0.031726748 4.707438e-40
0.1149722 0.084413908 0.032220077 2.4046982e-39
0.12376416 0.082948819 0.032190222 7.3825462e-39
0.13124406 0.080773756 0.031197106 1.0610472e-38
0.089310631 0.097700424 0.030003889 6.0907578e-39
0.096756414 0.094552778 0.030710498 1.9440844e-39
0.1048169 0.093409024 0.031132966 5.0783757e-39
0.1131202 0.091765605 0.031262122 1.1623904e-38
0.098206997 0.10116852 0.030074509 4.1539153e-39
0.10267384 0.10070439 0.030349966 1.9182853e-38
-0.032667816 -0.10050744 0.040405206 1.4850388e-38
-0.027374377 -0.10087334 0.040535539 1.1530273e-38
-0.042141389 -0.093720421 0.040957272 6.4584235e-39
-0.034411829 -0.093202934 0.041771036 1.5713376e-39
-0.025801452 -0.094431914 0.041509695 3.7851187e-39
-0.015940595 -0.092604406 0.040544957 5.9996117e-39
-0.0093465848 -0.090481304 0.040336505 1.7707375e-38
-0.050577473 -0.083797336 0.040687528 9.0417102e-39
-0.04348762 -0.085529909 0.040976375 1.2021852e-39
-0.034390558 -0.085601032 0.041586332 9.5111732e-41
-0.025356237 -0.084816828 0.04235056 1.876703e-40
-0.015952671 -0.083621025 0.041880462 2.034108e-39
-0.0064355554 -0.083689846 0.040445913 9.779271e-39
-0.041393407 -0.079249412 0.040293351 4.6569492e-40
-0.033275563 -0.077972725 0.040600657 6.5188405e-42
-0.024236489 -0.076204985 0.04120443 5.0769043e-42
-0.014854351 -0.075183265 0.041940935 2.7986313e-40
-0.0059232339 -0.073821411 0.042344462 2.6783984e-39
0.0041631158 -0.073758192 0.040688433 9.687074e-39
0.011062866 -0.070963845 0.040526643 1.604965e-38
-0.021165198 -0.068685859 0.040395781 6.160108e-42
-0.013949573 -0.066557236 0.040859845 6.1573055e-42
-0.0046849377 -0.065372802 0.041417275 9.5830598e-41
0.0045856214 -0.064427823 0.041746434 9.2631994e-40
0.013968753 -0.063390285 0.041033443 6.5517051e-39
0.021346938 -0.061364181 0.040472787 1.6509546e-38
-0.010279834 -0.059933107 0.04023464 5.7929679e-42
-0.0030583825 -0.057683714 0.040750645 9.8715872e-41
0.0054063909 -0.055945721 0.041018441 4.3552356e-42
0.014993513 -0.055092845 0.041540496 1.0185156e-39
0.023908589 -0.053680245 0.04124919 4.4312056e-39
0.031702995 -0.051363006 0.040830031 1.4481605e-38
0.0073541123 -0.047913034 0.040634066 9.9436139e-41
0.015463786 -0.04610372 0.040735271 9.7632668e-41
0.025485139 -0.045643952 0.04151478 1.0185156e-39
0.034297507 -0.04400162 0.041483361 5.6301047e-39
0.042235669 -0.041737594 0.041244056 1.3191224e-38
0.017529853 -0.038176276 0.040522855 9.9434738e-41
0.02621701 -0.035746455 0.040595643 5.5969262e-40
0.035613339 -0.035758611 0.041366458 7.4372795e-40
0.044590753 -0.034648918 0.041412286 4.1556907e-39
0.052788038 -0.032122307 0.041217711 8.4899643e-39
0.028208748 -0.027845111 0.040434688 1.0231917e-39
0.035485931 -0.02761646 0.040722545 3.7674189e-40
0.045712549 -0.027152082 0.040998593 3.7458249e-40
0.055318724 -0.025408378 0.041192759 3.6947112e-39
0.063585103 -0.022884082 0.041143462 8.766554e-39
0.071827352 -0.020960517 0.040410254 1.2269998e-38
0.057695068 -0.016532157 0.040672738 3.7422236e-40
0.065462999 -0.015308973 0.041151915 2.6809208e-39
0.073882684 -0.013920728 0.04102543 7.4754579e-39
0.082082428 -0.011696976 0.040519938 1.2915e-38
0.058669727 -0.0072850604 0.040414415 7.4624748e-40
0.066094428 -0.0060159652 0.040744662 4.6929766e-40
0.075169429 -0.0055452557 0.041152053 1.3905407e-39
0.084520616 -0.0041811466 0.041071411 4.8021419e-39
0.093128935 -0.0022228323 0.04086094 9.9650972e-39
0.066782951 0.0017280139 0.040314827 1.8543971e-39
0.076073088 0.0038659764 0.040586956 2.8562807e-40
0.085605159 0.0044408566 0.041081831 1.0224756e-39
0.094836973 0.0053174538 0.041134253 2.7745569e-39
0.10334954 0.0069202897 0.041002702 6.0928794e-39
0.11128255 0.0091365706 0.040595029 1.015057e-38
0.079009749 0.011757774 0.040310711 9.4055153e-42
0.086595662 0.013825524 0.040646773 1.0087808e-40
0.095647447 0.014494159 0.040993854 4.7038226e-40
0.10499966 0.014938066 0.041286748 2.4983288e-39
0.11383156 0.016428908 0.041162398 6.0932409e-39
0.12171688 0.018486133 0.040596958 5.9074105e-39
0.088745832 0.021006308 0.040270686 1.0267874e-40
0.09631025 0.023546688 0.040560987 1.0231861e-40
0.10544997 0.024313932 0.040916275 4.7146266e-40
0.11515293 0.02484484 0.041350491 2.3142991e-39
0.12452991 0.026047558 0.041280657 4.0652944e-39
0.13278361 0.027818868 0.04102857 5.539344e-39
0.14083037 0.029185856 0.040531699 2.8634833e-40
0.098074719 0.031470388 0.040185746 1.084605e-41
0.1061705 0.03276667 0.040490691 2.8671127e-40
0.1156906 0.034232758 0.040829372 3.799859e-40
0.1253657 0.034708899 0.041463207 1.484537e-39
0.13472374 0.035619292 0.041948803 3.9731001e-39
0.14146399 0.037170954 0.041597556 5.5400685e-39
0.10861582 0.041095082 0.040124491 9.3999101e-42
0.11684432 0.042988628 0.040450361 3.7926844e-40
0.12556972 0.044512663 0.04095725 3.799873e-40
0.13527118 0.044607773 0.04200333 1.4838209e-39
0.1426608 0.044864558 0.041388638 5.8163023e-39
0.11968233 0.051248375 0.040215541 4.6821586e-40
0.12674296 0.054128945 0.040646747 1.9595758e-40
0.13486227 0.05442128 0.041418433 5.6186603e-40
0.14317095 0.054209948 0.040884629 6.7364705e-39
0.12834716 0.063638493 0.040475842 3.4184942e-39
0.1344085 0.062600061 0.040440969 4.1546285e-39
0.14196448 0.061693285 0.040388357 1.2176725e-38
