# .PCD v0.7 - Point Cloud Data file format
VERSION 0.7
FIELDS x y z rgb
SIZE 4 4 4 4
TYPE F F F F
COUNT 1 1 1 1
WIDTH 91
HEIGHT 1
VIEWPOINT 0 0 0 1 0 0 0
POINTS 91
DATA ascii
0.0062850481 -0.015127259 0.0098240431 1.4760369e-38
0.014388879 -0.013440358 0.009398154 1.0059641e-40
0.019030977 -0.0086509446 0.0092261517 1.0203275e-40
0.021675814 -0.0052414066 0.0095401937 1.9207458e-40
-0.013041245 0.0068661603 0.0092952196 1.0382501e-40
0.021932181 0.0039606062 0.0091837049 1.208009e-39
-0.011357119 0.01206177 0.0088065704 1.0346627e-40
-0.0054628733 0.01640393 0.0082915016 1.0238447e-40
0.0031458561 0.019234326 0.0083675897 9.8301087e-42
0.01577165 0.017007427 0.0092048328 4.6973486e-40
0.020896463 0.01290893 0.009033639 9.879995e-41
-0.0007086398 0.020447213 0.0093185846 1.1634981e-41
0.0058462061 0.020878304 0.008943337 1.1158231e-39
0.01049942 0.020910347 0.0093542608 1.0204115e-40
-0.010968721 -0.010667425 0.012870149 1.394938e-39
-0.0041355477 -0.012436002 0.015637385 3.8041049e-40
0.0052126963 -0.013966057 0.015550667 7.4847134e-40
0.013595141 -0.012299749 0.014924714 1.3023654e-39
-0.012142253 -0.0038141259 0.015459277 4.7296906e-40
-0.0083301831 -0.0077786939 0.016824819 3.7932869e-40
0.009469687 -0.0095737968 0.019217359 4.0595617e-42
0.017341169 -0.0066922605 0.016351402 6.5555405e-40
0.021403426 -0.0032615711 0.014878543 1.4867595e-39
-0.012916501 0.0048874123 0.015541008 6.5736032e-40
-0.0093011381 0.0075717159 0.018965539 4.6828312e-40
0.019069396 0.0061167162 0.017409377 5.6227661e-40
0.02179186 0.0048614047 0.015054787 1.1179755e-39
-0.01131396 0.012390176 0.01502938 1.487121e-39
-0.005647887 0.015988322 0.015779911 5.6444302e-40
0.0050790822 0.018410543 0.015987238 3.7932869e-40
0.015473315 0.015481087 0.015438242 1.0250582e-39
0.021123379 0.011948215 0.014461617 3.2377562e-39
-0.0013985189 0.020684255 0.014385164 6.5880786e-40
0.0049725561 0.020983813 0.014321583 9.3431155e-40
0.01154705 0.02089569 0.013968755 4.0671609e-39
-0.0030243366 -0.011521576 0.022488562 1.3891576e-39
0.0049807937 -0.011716847 0.023202557 8.3381743e-40
0.01281201 -0.01137015 0.022046184 3.7887593e-39
-0.01127149 -0.0024538212 0.021899765 7.4450847e-40
-0.0052944068 -0.0052850344 0.025217667 1.8700468e-40
0.0055562975 -0.0076794969 0.026541753 9.4444714e-41
0.014679047 -0.0047806953 0.024655165 1.0171255e-39
0.020745363 -0.0020104917 0.021230159 5.6351929e-39
-0.011593337 0.004602903 0.022531722 2.495501e-39
-0.0068374472 0.0055484273 0.025697732 9.4809051e-41
0.0062037818 0.0091707027 0.027003564 9.517479e-41
0.015899971 0.0051903683 0.025146294 5.5542426e-40
0.020782704 0.0043146135 0.022214144 5.5404777e-39
-0.011194576 0.011543289 0.021533115 6.4642319e-39
-0.0042646332 0.013762965 0.024179045 1.4791854e-39
0.0050227018 0.015131318 0.024784911 1.2015153e-39
0.013581687 0.013211718 0.023939023 2.0319963e-39
0.020206686 0.01063292 0.022275977 2.8643942e-40
-0.00088605256 0.020256249 0.021681508 9.6925068e-39
0.004248566 0.020696666 0.021611338 9.7843479e-39
0.010196978 0.02023736 0.020171229 1.1903031e-38
0.0023932669 -0.010209176 0.030899819 1.8989976e-40
-0.0032634959 -0.0037884777 0.03442673 7.4703221e-40
0.004820995 -0.006524378 0.034618277 8.3958517e-40
0.013073347 -0.0031806284 0.034534566 6.5411772e-40
-0.0053467397 0.0051750359 0.034751534 5.6336262e-40
0.0091168322 0.0093870182 0.034845665 1.1168839e-39
0.013926635 0.0050116577 0.034839366 4.7080405e-40
-0.0022859825 0.011672867 0.034469079 3.7789096e-40
0.0051320666 0.012942164 0.03486326 5.6191928e-40
0.011693276 0.0115294 0.033960581 6.5411351e-40
-0.0030246146 -0.0036050119 0.045166075 9.2998153e-40
0.0046826783 -0.0062359376 0.045195077 1.5757111e-39
0.012529776 -0.0028303985 0.044818219 9.3250667e-40
-0.0046734312 0.0049011377 0.044731583 5.6408569e-40
0.007806669 0.008544012 0.047166109 6.5303171e-40
0.012940675 0.0051191184 0.044955116 9.3178501e-40
-0.0018650285 0.011374781 0.045080479 1.3005689e-39
0.0049382183 0.01202496 0.04507919 1.9430503e-39
0.010899044 0.010814596 0.044259563 1.1114917e-39
-0.0027622699 -0.0029498448 0.054373737 3.7572315e-40
0.0047759055 -0.0041616508 0.05467438 1.0214527e-39
0.011608765 -0.0026219748 0.05295752 2.9564833e-39
-0.003157842 0.0043765251 0.054139752 7.4523154e-40
0.0054908362 0.00647223 0.055609584 6.5303031e-40
0.012227031 0.0049805939 0.053762887 1.3913156e-39
-0.0017334522 0.01085121 0.054063667 3.7860702e-40
0.0046202028 0.011338202 0.054125603 1.020731e-39
0.010672159 0.010372427 0.051866923 3.5085725e-39
-0.0023434269 -0.003654205 0.061490696 9.9133459e-41
0.0032874185 -0.0034563004 0.061816081 5.5831374e-40
-0.00089468557 0.0062997672 0.061073381 9.2890534e-40
0.0046484228 0.0059470627 0.061385442 7.437868e-40
0.011276412 0.0066401763 0.061156366 5.6406887e-40
-0.00073191785 0.010635003 0.061255135 2.8641139e-40
0.0034189634 0.010944784 0.061956383 6.9406313e-42
