# .PCD v0.7 - Point Cloud Data file format
VERSION 0.7
FIELDS x y z rgb
SIZE 4 4 4 4
TYPE F F F F
COUNT 1 1 1 1
WIDTH 731
HEIGHT 1
VIEWPOINT 0 0 0 1 0 0 0
POINTS 731
DATA ascii
-0.031457897 -0.13034245 0.0086234389 1.9466222e-39
-0.024249444 -0.13087003 0.0090908343 1.3019548e-39
-0.018233504 -0.1308334 0.0091109341 4.2518604e-39
-0.040935956 -0.12113244 0.0092550414 2.8779588e-40
-0.035191942 -0.12649126 0.0091613736 5.6367091e-40
-0.024902811 -0.12916392 0.009317996 1.9415691e-40
-0.01414704 -0.12759389 0.0084707597 5.668967e-40
-0.0050036614 -0.12374948 0.0084569789 1.764728e-39
0.0043246537 -0.12309939 0.0089196358 3.8841457e-39
0.010618826 -0.12004027 0.0088995602 8.9498845e-39
-0.045792736 -0.11389256 0.0092454683 1.3941462e-39
-0.00090174464 -0.11902075 0.0086619304 4.7577726e-40
0.0054475269 -0.11608461 0.008856873 1.7647252e-39
0.014059599 -0.11389776 0.0089777978 4.3462043e-39
0.020401694 -0.11089586 0.0091053918 1.8988155e-40
-0.052173372 -0.10377294 0.0088769495 3.3288237e-39
-0.048888862 -0.10792556 0.0090800533 1.7625672e-39
0.0097568594 -0.10985488 0.0089436118 6.5979297e-40
0.016953826 -0.10677628 0.0087292623 2.225346e-39
0.023725383 -0.10366072 0.0085252542 3.5168065e-39
0.0307319 -0.10094155 0.008330428 8.4021043e-39
-0.060762338 -0.091044404 0.00785127 7.4794207e-39
-0.05694196 -0.094601773 0.0087813186 2.8674784e-39
0.026966853 -0.097690113 0.008228559 1.211913e-39
0.034509368 -0.09385363 0.0081857285 3.7937535e-39
0.040673602 -0.090919428 0.0081517156 2.2278656e-39
-0.0633744 -0.084440753 0.0085146641 5.4478757e-39
-0.058468841 -0.086882636 0.0094509292 1.0195974e-39
0.038133103 -0.088285998 0.0083150808 1.3041072e-39
0.044517443 -0.084783375 0.0080881026 3.5178827e-39
0.050921239 -0.08094427 0.0084148385 3.8866708e-39
-0.071145214 -0.072742954 0.0081672827 4.8961466e-39
-0.066705599 -0.075596824 0.0088639045 1.9419138e-39
-0.057835225 -0.075252205 0.0098500792 4.3468278e-42
0.048463725 -0.079081446 0.0082631465 2.8959374e-40
0.055318397 -0.075426146 0.0082127964 1.1240291e-39
0.061443888 -0.071228661 0.0082612038 1.5853716e-39
-0.071697257 -0.065143995 0.008773745 1.8490091e-39
-0.066616848 -0.065089948 0.009399903 9.4745993e-41
-0.056506548 -0.063872688 0.009840834 2.9006878e-42
-0.048779979 -0.062058229 0.0099108843 3.6167513e-42
0.065921858 -0.066544406 0.0080861738 5.7265323e-40
0.071919076 -0.06141445 0.0082296757 4.8009887e-40
-0.071441352 -0.056152169 0.0089313928 2.2181518e-39
-0.066400498 -0.054851614 0.0093610352 6.4828271e-40
-0.054746274 -0.054899395 0.0096930061 3.2608215e-42
-0.046395976 -0.053880174 0.0098094568 3.2608215e-42
-0.036222816 -0.051568847 0.0099887308 9.5809579e-41
0.076216869 -0.057367079 0.0083876094 5.7193156e-40
0.083419949 -0.05278701 0.008520687 2.5058902e-39
-0.070356965 -0.049134146 0.0092483778 1.1996278e-38
-0.063941486 -0.045453187 0.0091628926 2.4046898e-39
-0.055234209 -0.044148229 0.0094785979 6.4971764e-40
-0.045643516 -0.044445962 0.0097111622 3.2594202e-42
-0.036985539 -0.043736983 0.0098369475 2.1818217e-42
0.087941118 -0.047465146 0.0084679471 9.4071408e-40
0.093618214 -0.043107692 0.0087586762 1.1240277e-39
0.10043521 -0.040569678 0.0091934334 8.4494514e-40
-0.061537735 -0.039453257 0.0091444431 8.862351e-39
-0.053974696 -0.036311138 0.008933383 3.6947126e-39
-0.045519017 -0.034219876 0.0092295092 1.018503e-39
-0.035913616 -0.033966295 0.0096635921 3.9796876e-42
-0.027929319 -0.03278961 0.009860876 2.9006878e-42
0.097352132 -0.037492469 0.0090931663 1.03003e-39
0.10410111 -0.034109466 0.0089060338 2.5966411e-39
0.11132874 -0.031410482 0.0085059814 2.7831974e-39
-0.043363627 -0.025634445 0.0084276143 9.0442185e-39
-0.03596418 -0.023795631 0.0089131845 3.785818e-39
-0.026963519 -0.023937916 0.0096914433 3.9810889e-42
-0.017906601 -0.021860583 0.0097704697 4.6929486e-42
0.10734854 -0.027862374 0.009243398 1.950543e-39
0.11492195 -0.024376445 0.0089786649 5.8220476e-39
0.12315678 -0.02154121 0.0091287512 2.5987921e-39
-0.040809903 -0.019641003 0.0074169347 1.5131647e-38
-0.033889808 -0.017062124 0.0081925308 1.0059449e-38
-0.026188934 -0.0137572 0.0089591192 4.4322706e-39
-0.01813608 -0.012169654 0.009784204 3.9880954e-42
0.11850511 -0.018207554 0.0087868208 3.7004761e-39
0.12393522 -0.015238891 0.0088723041 3.4260416e-39
0.13556613 -0.012588589 0.0094448877 2.4126156e-39
-0.022820758 -0.0075717573 0.0088698743 8.3088115e-39
-0.01619469 -0.0039398004 0.0089072185 4.1582047e-39
-0.0093673961 -0.00079732947 0.0093794614 4.3482291e-42
0.12859896 -0.0089321081 0.0092612281 1.0285895e-39
0.13471912 -0.0042314273 0.0090822084 8.4456258e-40
0.14384282 -0.0050727543 0.0095100692 2.3189864e-39
-0.012298476 0.0021319294 0.0084277764 8.2176962e-39
-0.0067785014 0.0058853384 0.0089459559 2.9625467e-39
0.13925989 0.0008172419 0.0092580747 2.9174053e-40
0.14425206 0.0049834163 0.0090704421 6.587392e-40
0.15071325 0.0066012386 0.0090728486 2.1342308e-39
-0.0019081716 0.012126909 0.0085777799 3.7955486e-39
0.003987954 0.016691903 0.0082453061 2.5980802e-39
0.011111199 0.019744519 0.0097904587 8.4564439e-40
0.14947295 0.010579515 0.0096975248 1.2632706e-41
0.15397964 0.015182863 0.0093255667 2.8779588e-40
0.0085079931 0.021473218 0.0078936461 4.6267442e-39
0.014891745 0.025702786 0.0082195699 4.1643283e-39
0.022345211 0.028874371 0.008894884 2.8685518e-39
0.032241877 0.028782407 0.0099450322 5.4314328e-42
0.1585305 0.024964888 0.0093757547 1.1153999e-39
0.16035141 0.027591715 0.009091571 5.5756825e-40
0.019127345 0.030765545 0.0080752922 7.6666847e-39
0.02604791 0.034114875 0.0081417672 5.5433055e-39
0.033709884 0.036962632 0.008698131 2.1270225e-39
0.043175258 0.038676821 0.0096497787 3.9866941e-42
0.054148622 0.036884092 0.0098095862 1.4587517e-42
0.15801181 0.036489088 0.0091211041 4.685914e-40
0.16055568 0.033049859 0.0090331864 2.0344976e-39
0.029272579 0.040520586 0.0096108988 1.7341478e-38
0.036253683 0.042900506 0.0084516173 5.2649166e-39
0.044415724 0.046031214 0.0088868914 1.5731271e-39
0.053779542 0.04682276 0.0095658284 3.9852928e-42
0.062035207 0.047363248 0.0098301526 2.1818217e-42
0.14755632 0.048129741 0.0093347449 9.7280942e-41
0.15350911 0.044869944 0.0088387756 1.6664241e-39
0.047387868 0.052258238 0.0082030874 5.3560388e-39
0.054800399 0.055467978 0.0085142562 1.4805741e-39
0.063757338 0.056809139 0.0091137467 3.6279617e-42
0.074183188 0.058114711 0.0096723717 2.5419554e-42
0.084030464 0.057640757 0.0098727783 1.821688e-42
0.095921569 0.057655029 0.00994395 7.4268819e-43
0.10279841 0.058289222 0.0099333962 1.8230893e-42
0.11761283 0.059292734 0.0099367714 2.9034904e-42
0.12767664 0.058231581 0.0097135045 2.906293e-42
0.13607542 0.057128996 0.009087177 5.5825769e-40
0.14401795 0.053726494 0.008701846 2.4969065e-39
0.15070717 0.050498549 0.0080769928 1.0335336e-38
0.057780735 0.061980043 0.0079746181 6.555661e-39
0.06507346 0.064703152 0.0082287677 2.7713129e-39
0.074265458 0.065969311 0.0088092219 9.5464859e-41
0.084667861 0.066157065 0.0095874649 2.9034904e-42
0.095025383 0.066337124 0.009694227 2.1818217e-42
0.1050598 0.066375904 0.0096422927 2.183223e-42
0.1155548 0.066616379 0.0094776498 2.9034904e-42
0.12558594 0.065680422 0.0088930121 7.4229022e-40
0.13331109 0.062471274 0.0084353965 2.4043479e-39
0.067762978 0.071755901 0.008595868 8.3073737e-39
0.075617135 0.074386969 0.0081796162 2.9553469e-39
0.084544599 0.075885952 0.0085677626 1.8766189e-40
0.094761871 0.076027125 0.0090778526 2.9048917e-42
0.10519455 0.075767033 0.0090701105 2.5461593e-42
0.11478021 0.075542822 0.0085501364 1.7571666e-39
0.12236429 0.07207372 0.0078679547 4.5255719e-39
0.078359447 0.081320211 0.0086464323 1.0426077e-38
0.085769415 0.082891434 0.0079969643 3.7847488e-39
0.095000289 0.084090494 0.0081379665 1.6635262e-39
0.10456413 0.083250083 0.0081741316 1.6646151e-39
0.11175762 0.081217952 0.0078089577 6.0932563e-39
-0.031225972 -0.13028488 0.012706301 4.8968641e-39
-0.024285672 -0.13094786 0.014503292 7.6605708e-39
-0.016269103 -0.13079351 0.014987484 7.9360899e-39
-0.0068628802 -0.13024767 0.013428278 6.1868686e-39
-0.041029289 -0.12106384 0.01355299 3.048267e-39
-0.034097102 -0.1238421 0.014908959 3.0471782e-39
-0.024920387 -0.1251356 0.015597844 7.4192308e-40
-0.015080455 -0.12514639 0.015553242 1.1110671e-39
-0.0055092783 -0.1239288 0.014856675 3.0486229e-39
0.0031988912 -0.1224767 0.013549766 2.8653064e-39
-0.043193966 -0.11392631 0.014796785 4.2460843e-39
-0.034982886 -0.11492279 0.015984513 5.5752621e-40
-0.024959262 -0.11496626 0.016292766 3.9866941e-42
-0.015073828 -0.1149717 0.016427863 4.3468278e-42
-0.0049083252 -0.11515506 0.016157702 2.8129665e-40
0.004785582 -0.1147129 0.015024398 2.4032493e-39
0.013191114 -0.11282305 0.013346712 2.7731136e-39
0.020230558 -0.11061272 0.010684023 2.6849145e-39
-0.05173514 -0.10282431 0.013855932 6.3676684e-39
-0.044968583 -0.10482863 0.015274948 2.033022e-39
-0.034994893 -0.10489911 0.016081819 4.3482291e-42
-0.02498843 -0.1049481 0.016276777 4.3468278e-42
-0.015130657 -0.10492364 0.016448773 4.3468278e-42
-0.0050653247 -0.10492746 0.016655982 4.3468278e-42
0.0051336107 -0.10501539 0.016443031 9.6905394e-41
0.015002588 -0.10493343 0.015184662 2.2184979e-39
0.023319086 -0.10303859 0.013887353 4.5251921e-39
0.030315781 -0.10045216 0.011646909 1.0246336e-39
-0.060537592 -0.090953022 0.012905465 1.2086674e-38
-0.053938176 -0.094386213 0.014455312 4.3386386e-39
-0.045080844 -0.095024452 0.015531963 9.6548063e-41
-0.035003781 -0.095043786 0.015918609 4.7069615e-42
-0.024946278 -0.095048636 0.016112987 4.7083628e-42
-0.01510199 -0.095001593 0.016282097 4.7055602e-42
-0.005129281 -0.095060475 0.016627481 4.3468278e-42
0.0050832406 -0.095043942 0.016742062 4.3468278e-42
0.015150557 -0.09513884 0.016581111 4.7083628e-42
0.025014199 -0.09515731 0.015492643 1.4809287e-39
0.033540774 -0.093424849 0.014154746 4.2482437e-39
0.040732253 -0.09069977 0.012988078 4.2489485e-39
-0.062491506 -0.083653368 0.013864525 7.9349941e-39
-0.054980405 -0.084975876 0.014939761 1.2028998e-39
-0.045102701 -0.085007027 0.015512339 4.7083628e-42
-0.03498492 -0.085040279 0.015749065 5.0684965e-42
-0.024961393 -0.08504153 0.016002335 5.0670952e-42
-0.015118453 -0.085031874 0.016202906 4.7083628e-42
-0.0050931643 -0.085043885 0.016445696 4.7069615e-42
0.0050179739 -0.085058555 0.016580585 4.3468278e-42
0.01505681 -0.08508566 0.016776739 4.3454265e-42
0.024977036 -0.085131921 0.016638802 4.3468278e-42
0.035082057 -0.085231237 0.015850985 1.0195876e-39
0.043946218 -0.083713412 0.014587338 4.5248306e-39
0.05087252 -0.080922984 0.0129882 5.5411377e-39
-0.070785284 -0.07229019 0.013070365 1.0056575e-38
-0.064303331 -0.074628055 0.014306164 3.3237665e-39
-0.055050567 -0.074915558 0.014976888 9.6905394e-41
-0.045116715 -0.074956119 0.015334286 5.4286303e-42
-0.034993198 -0.074958496 0.015489954 5.0684965e-42
-0.024936674 -0.074909344 0.015764797 4.7083628e-42
-0.015092371 -0.074927092 0.01603538 4.7069615e-42
-0.0051151295 -0.074909084 0.016248278 4.7069615e-42
0.0050304127 -0.074895926 0.016438963 4.7069615e-42
0.015036301 -0.074945882 0.016704459 4.3468278e-42
0.024925143 -0.074924998 0.016780335 3.9866941e-42
0.034948099 -0.075053073 0.016809687 3.9866941e-42
0.04520585 -0.075336464 0.016433202 4.6605085e-40
0.05443085 -0.074269451 0.015408374 2.6816354e-39
0.061378621 -0.071127668 0.014278062 3.8823394e-39
-0.071555607 -0.064579375 0.013189566 8.4881693e-39
-0.064739145 -0.064933687 0.014703546 1.2028998e-39
-0.055080734 -0.064998098 0.014885539 9.7625661e-41
-0.045100547 -0.064966924 0.014900032 9.762426e-41
-0.034945048 -0.064942904 0.015111994 5.0684965e-42
-0.024962327 -0.064927921 0.015432973 4.7083628e-42
-0.015125006 -0.064919434 0.015791303 4.7069615e-42
-0.0051120659 -0.064908542 0.016037734 4.7069615e-42
0.0049910531 -0.064870536 0.016255779 4.7083628e-42
0.015010814 -0.064876549 0.016435044 4.3482291e-42
0.02486724 -0.064901501 0.016695181 4.3482291e-42
0.034722961 -0.065028869 0.017040245 3.9866941e-42
0.044730399 -0.065429322 0.01776123 9.8344528e-41
0.055185132 -0.065752193 0.018037375 4.3482291e-42
0.064928837 -0.06507051 0.015976233 1.0217512e-39
0.072014876 -0.061805293 0.014538249 2.5912447e-39
-0.07156606 -0.056147762 0.012804465 8.949146e-39
-0.064714223 -0.055238601 0.014312873 2.6780313e-39
-0.055093389 -0.055119067 0.014426699 2.8201692e-40
-0.045105819 -0.055102479 0.0144979 9.7625661e-41
-0.03493657 -0.055067718 0.014680322 5.4286303e-42
-0.024957979 -0.055068765 0.015021968 5.0670952e-42
-0.015077529 -0.05508583 0.015402267 4.7083628e-42
-0.0050860415 -0.055061415 0.015756018 4.7069615e-42
0.0050153639 -0.055023938 0.016043795 4.3482291e-42
0.015001007 -0.055022135 0.016302099 4.3468278e-42
0.024822971 -0.055079039 0.016607173 4.3482291e-42
0.034355909 -0.055362314 0.017486751 9.8344528e-41
0.044192065 -0.055787165 0.018706465 3.2608215e-42
0.05490474 -0.055782512 0.019138897 1.4573504e-42
0.065649144 -0.055979442 0.018700868 3.6251591e-42
0.075434566 -0.055587061 0.016101973 7.4552161e-40
0.082927473 -0.05241638 0.014677059 1.208306e-39
-0.070486166 -0.049417265 0.011904835 1.0610474e-38
-0.063330702 -0.046410561 0.01356131 5.9977985e-39
-0.055017278 -0.045160364 0.014048489 2.1255736e-39
-0.045030255 -0.045105435 0.014186201 2.8201552e-40
-0.03495717 -0.045111358 0.01419294 9.7622859e-41
-0.024917852 -0.045134526 0.014395605 5.427229e-42
-0.015044788 -0.045082957 0.014868743 5.0670952e-42
-0.0050792648 -0.045110159 0.015280195 4.7069615e-42
0.0050585172 -0.045113441 0.015665457 4.3468278e-42
0.014995967 -0.04504453 0.016165288 4.3468278e-42
0.02463798 -0.045180537 0.016829401 9.7262725e-41
0.03405565 -0.045409035 0.018120797 9.6539655e-41
0.043428138 -0.046008267 0.019303087 9.5457853e-41
0.054655202 -0.044816531 0.019570263 6.0910717e-39
0.067295931 -0.047199041 0.019539172 7.3938392e-40
0.075958364 -0.045940537 0.018926559 4.7055602e-42
0.085739024 -0.045737229 0.016515564 6.5260571e-40
0.093579829 -0.042962082 0.014775027 2.1284603e-39
0.10052774 -0.040470403 0.014550549 5.7262632e-39
-0.061435465 -0.038825024 0.011596267 1.2917511e-38
-0.053657345 -0.036745243 0.01327533 8.2112152e-39
-0.044886466 -0.03518365 0.013912648 2.8627799e-39
-0.034966342 -0.034921333 0.013902727 3.7385242e-40
-0.024977466 -0.034954224 0.014000217 9.7262725e-41
-0.015069206 -0.034996822 0.014412874 5.0684965e-42
-0.0050395299 -0.035022471 0.014779421 4.7055602e-42
0.0051166406 -0.034967873 0.015338454 4.3468278e-42
0.014869231 -0.035010859 0.016271606 4.3454265e-42
0.024288053 -0.035225272 0.017388694 9.7621458e-41
0.033781502 -0.035703294 0.018873245 9.5456451e-41
0.041886739 -0.035786305 0.019661412 2.1776178e-42
0.054403268 -0.038198646 0.019185996 1.0334604e-38
0.069152206 -0.033234127 0.019788079 2.7947917e-40
0.076018825 -0.034788445 0.019320218 1.4573504e-42
0.085818611 -0.034926068 0.018261392 4.3468278e-42
0.095477819 -0.035191655 0.016223732 8.3519631e-40
0.10375493 -0.033647414 0.014951748 2.9571433e-39
0.11129434 -0.030947423 0.013945263 2.2213748e-39
-0.050497036 -0.029693028 0.011917724 1.7803887e-38
-0.043392163 -0.027049448 0.012847012 9.5952301e-39
-0.034656592 -0.025173163 0.0137967 3.3237594e-39
-0.024963757 -0.024865573 0.014033007 5.5824228e-40
-0.015186515 -0.024851538 0.014136975 9.762426e-41
-0.0050524566 -0.025028046 0.014486504 5.0670952e-42
0.0052084601 -0.024920629 0.015432347 4.3454265e-42
0.014680005 -0.025084309 0.01670838 9.7622859e-41
0.023936799 -0.025331438 0.018091414 3.2622228e-42
0.033173345 -0.025672976 0.019444732 2.1776178e-42
0.043977238 -0.026649807 0.019921921 1.1000193e-42
0.056906741 -0.021321518 0.019672044 1.4587517e-42
0.066526219 -0.022973387 0.019214952 1.4573504e-42
0.075601518 -0.024234779 0.018613691 2.1804204e-42
0.085440204 -0.024666788 0.017820653 2.9020891e-42
0.095247932 -0.024889808 0.017059322 2.9048917e-42
0.10514755 -0.025141973 0.015970608 6.5008478e-40
0.11434042 -0.02422546 0.015145119 3.3255643e-39
0.12244593 -0.021752996 0.014702735 3.5121136e-39
-0.040436678 -0.019874465 0.010564504 1.6974496e-38
-0.032717898 -0.017624496 0.012918822 1.0148407e-38
-0.024562996 -0.015414793 0.013830615 4.6148598e-39
-0.015142758 -0.014988027 0.014311813 7.422762e-40
-0.0051953141 -0.014928172 0.014531929 9.762426e-41
0.0051012305 -0.015082386 0.015939778 9.7264126e-41
0.014551546 -0.015229277 0.0172334 3.9838915e-42
0.024017405 -0.015321724 0.018795766 2.7948898e-40
0.033721067 -0.014406124 0.019620495 2.1776178e-42
0.046133477 -0.012591354 0.019521732 2.1790191e-42
0.055876177 -0.013771405 0.019048806 1.8174841e-42
0.065493628 -0.014313236 0.018173033 9.4734783e-41
0.07517039 -0.014616468 0.017598653 3.6237578e-42
0.085209027 -0.014878766 0.017191803 3.2636241e-42
0.095085308 -0.015021851 0.016887229 3.2636241e-42
0.10496568 -0.01504359 0.01669465 3.2650254e-42
0.11510663 -0.015215944 0.016060729 4.6533338e-40
0.12461106 -0.014585581 0.015512105 3.1408129e-39
0.13358086 -0.012656646 0.015327243 3.6965076e-39
0.14032857 -0.010536285 0.016544787 1.0243118e-38
-0.02246456 -0.0080278618 0.012499508 1.2639126e-38
-0.014467435 -0.0057066446 0.013722815 5.3520675e-39
-0.0051590558 -0.0050003431 0.014868011 5.5716468e-40
0.0049103368 -0.0051298528 0.016405227 9.6903993e-41
0.014445642 -0.0050565517 0.017529521 2.8093512e-40
0.024636405 -0.0044971965 0.018255079 5.8191707e-39
0.035079852 -0.0041274275 0.01901014 3.5084996e-39
0.045540355 -0.0040686773 0.018485105 2.5377515e-42
0.055463217 -0.004372851 0.017638503 9.545505e-41
0.065150276 -0.0047234111 0.017078312 9.6180923e-41
0.074979305 -0.0049171755 0.016756887 3.9866941e-42
0.085056387 -0.0049309097 0.016700279 3.9866941e-42
0.09503042 -0.004981569 0.016663648 3.6251591e-42
0.10489673 -0.0050547118 0.016646072 3.2636241e-42
0.11494989 -0.0050344178 0.016529018 2.9048917e-42
0.12517413 -0.0052075544 0.0162284 2.8093932e-40
0.13468938 -0.0045941309 0.015780155 2.218135e-39
0.14371875 -0.0037361113 0.015308439 2.0355458e-39
0.15048185 -0.00091403106 0.016255638 1.930723e-40
-0.01213559 0.0018246564 0.012522465 1.3653638e-38
-0.004401092 0.0043219519 0.014476356 5.1698385e-39
0.0049363254 0.005104898 0.016331885 3.7313355e-40
0.014759841 0.0053276685 0.017138749 9.582219e-41
0.024756553 0.0056483452 0.017659852 2.1262911e-39
0.035329714 0.0058472836 0.017520966 4.6496064e-40
0.045254558 0.0055254251 0.016965782 9.5817986e-41
0.055085149 0.0052134865 0.016397964 9.6541056e-41
0.064965948 0.0051472206 0.016203409 4.3468278e-42
0.074967854 0.0051217997 0.016238431 4.3468278e-42
0.085056722 0.0051304097 0.016304154 4.3468278e-42
0.095047183 0.0051430981 0.016368743 3.9866941e-42
0.1048995 0.0050922111 0.01645831 3.6251591e-42
0.11491811 0.0050865542 0.016498016 3.2650254e-42
0.12503278 0.0051397076 0.016564999 3.2636241e-42
0.1351531 0.0049862708 0.016352259 1.8838216e-40
0.14446756 0.0054483446 0.015829694 1.2958171e-39
0.15273692 0.0059848013 0.016271854 3.5099584e-39
-0.0018387379 0.011981054 0.012624905 9.0467352e-39
0.0056152293 0.014521082 0.014536365 4.9865276e-39
0.015016685 0.015272962 0.016278576 6.4936171e-40
0.025004277 0.01528289 0.016469039 3.2636241e-42
0.034936097 0.015239787 0.016210323 9.6902591e-41
0.045049369 0.01507758 0.015477499 9.6542458e-41
0.055094182 0.015121787 0.015364715 4.7083628e-42
0.064933136 0.015135393 0.015676735 4.7083628e-42
0.074930429 0.015061221 0.015872404 4.7083628e-42
0.085067526 0.015117897 0.016081393 4.7069615e-42
0.095031209 0.015053825 0.0161146 4.3468278e-42
0.1049042 0.015144526 0.016241243 3.9852928e-42
0.1149475 0.015109078 0.016334083 3.6251591e-42
0.12501378 0.01510195 0.01640225 3.2650254e-42
0.13504331 0.015091315 0.016424822 2.9048917e-42
0.14499409 0.015059352 0.016269786 9.5824993e-41
0.15389979 0.015534369 0.015814912 1.4809329e-39
0.16047291 0.018416215 0.018350579 1.0332809e-38
0.0085187657 0.02135944 0.012637842 9.2311251e-39
0.015809311 0.023931358 0.014397548 6.369462e-39
0.024982313 0.025015688 0.015265418 1.2961745e-39
0.034931105 0.025065208 0.015221975 1.8909962e-40
0.044994846 0.02514334 0.014719495 9.7265528e-41
0.055068288 0.024989963 0.014769547 9.7264126e-41
0.064925671 0.024958575 0.015156392 5.0684965e-42
0.074915916 0.024954615 0.015514297 5.0670952e-42
0.085086644 0.024978422 0.015860302 5.0684965e-42
0.095012531 0.024984859 0.015955539 4.7069615e-42
0.10492834 0.02495154 0.016011016 4.3468278e-42
0.11492872 0.024978753 0.016094476 3.9866941e-42
0.12504742 0.024974437 0.01623947 3.6265604e-42
0.13505207 0.025011308 0.016269218 3.2664267e-42
0.1449481 0.024993209 0.016218789 3.2650254e-42
0.15476735 0.025023162 0.015600961 6.4972745e-40
0.16038701 0.025870981 0.014307531 9.6885271e-39
0.018686077 0.030999089 0.012493375 1.5038378e-38
0.026242623 0.033057015 0.013478092 9.7796199e-39
0.035254434 0.03458222 0.014341016 2.3088858e-39
0.045071665 0.034932483 0.014744828 3.7385242e-40
0.055007301 0.03500678 0.014795907 1.8982129e-40
0.064915843 0.034986913 0.014800061 9.7265528e-41
0.074960746 0.034926645 0.015057146 5.4286303e-42
0.085109137 0.034970861 0.015519766 9.7262725e-41
0.09505827 0.03498039 0.01571163 9.6903993e-41
0.10487447 0.034992009 0.015819112 4.7069615e-42
0.11494235 0.035003904 0.01593077 4.3468278e-42
0.12503539 0.035037525 0.015987195 3.9852928e-42
0.13504611 0.034985811 0.016063809 3.6265604e-42
0.14493889 0.035040155 0.016040651 3.6265604e-42
0.15452059 0.034840871 0.015169478 1.2029026e-39
0.16039398 0.032721855 0.013042557 9.0445913e-39
0.029116711 0.0406265 0.012423151 1.7619138e-38
0.036699716 0.042959813 0.0130061 1.1808285e-38
0.045412801 0.044609588 0.014108627 2.9542581e-39
0.055140745 0.04496415 0.014647502 3.7313355e-40
0.064895123 0.045105062 0.014733024 9.7627063e-41
0.07494501 0.045131575 0.014855044 9.7625661e-41
0.085085124 0.045117684 0.015146373 9.7264126e-41
0.095059276 0.045114677 0.015341874 9.6903993e-41
0.10495037 0.045113634 0.015569116 9.6903993e-41
0.11493297 0.045091361 0.015675787 4.3482291e-42
0.12505969 0.045108631 0.015727304 3.9866941e-42
0.13507928 0.045124359 0.015602578 3.9880954e-42
0.14487551 0.044985194 0.015217232 1.2950941e-39
0.15255262 0.043197591 0.014202806 3.0475425e-39
0.039879825 0.050232928 0.013359877 1.6605e-38
0.047101259 0.052798036 0.012748302 1.2638047e-38
0.055429548 0.054493088 0.013891584 3.7840201e-39
0.065060064 0.054978579 0.014646484 5.5788494e-40
0.07496877 0.055051859 0.014706719 9.7625661e-41
0.085089862 0.055057213 0.014897815 9.7625661e-41
0.095027164 0.05504711 0.015042224 9.7265528e-41
0.10490397 0.05509669 0.015179992 9.6903993e-41
0.11495418 0.055136077 0.015333748 4.3468278e-42
0.12503788 0.055086508 0.015201052 9.5824993e-41
0.13477001 0.054681625 0.014734366 1.7564365e-39
0.14291556 0.052571788 0.013863583 4.4308385e-39
0.057025801 0.062498134 0.012434565 1.4297933e-38
0.065524727 0.064238064 0.013711427 4.4293909e-39
0.075064518 0.064792223 0.014548377 4.6568931e-40
0.085069291 0.064913787 0.014744113 9.7625661e-41
0.095046833 0.064899392 0.014856352 5.4286303e-42
0.10494496 0.06495098 0.014967347 4.7083628e-42
0.11490541 0.064908437 0.014943474 9.6546662e-41
0.12443949 0.064314298 0.014421208 2.40145e-39
0.13228905 0.061862499 0.01349155 5.7219416e-39
0.067569606 0.072008483 0.012308781 1.5035138e-38
0.075829707 0.074175701 0.013452661 4.983285e-39
0.085229702 0.074683152 0.014513794 6.4972324e-40
0.095050223 0.074872203 0.014843174 1.8910383e-40
0.10486102 0.074801587 0.014762492 3.7313776e-40
0.11414224 0.073928654 0.014284751 4.1538901e-39
0.12168782 0.071546875 0.013410766 9.7799885e-39
0.077958845 0.081568256 0.012497824 1.5589032e-38
0.085640237 0.083252601 0.013054741 6.7350062e-39
0.095021181 0.083641067 0.013580126 3.7843859e-39
0.10396462 0.082654275 0.013496825 5.2598803e-39
0.1114402 0.08094798 0.012440369 1.3376337e-38
0.094924904 0.090227552 0.010891063 1.7248209e-38
-0.030088905 -0.13037686 0.020459792 1.7527661e-38
-0.025279647 -0.13058548 0.020881571 1.7803526e-38
-0.016298151 -0.13079984 0.020491304 1.7342552e-38
-0.040077798 -0.12008268 0.020881694 1.6791184e-38
-0.033191334 -0.12308042 0.021657592 9.4104899e-39
-0.024693817 -0.12433869 0.022266639 4.2464528e-39
-0.015355347 -0.12429869 0.022227818 3.2326596e-39
-0.0064306031 -0.12245453 0.021853644 5.6304733e-39
0.00034952469 -0.12094555 0.020612774 9.8722093e-39
-0.041906111 -0.11316987 0.021129733 1.2453662e-38
-0.034383554 -0.11494696 0.021904621 3.6014365e-39
-0.024881557 -0.11506486 0.022518311 2.8202393e-40
-0.015122519 -0.11464957 0.022608293 9.7271133e-41
-0.0051904405 -0.11476667 0.022328751 8.3484458e-40
0.0035490552 -0.11355786 0.021872681 5.9074175e-39
0.011324505 -0.1110706 0.020626172 1.217745e-38
-0.050742641 -0.10155457 0.020509891 1.448196e-38
-0.043730091 -0.10466641 0.021321047 7.4740173e-39
-0.034826096 -0.10509992 0.021683469 6.5116938e-40
-0.024625963 -0.10519826 0.021936828 9.9433336e-41
-0.014978404 -0.10509457 0.022357792 9.9073203e-41
-0.0049949903 -0.10510051 0.022759514 9.7271133e-41
0.0048585003 -0.10467587 0.022646477 9.2667867e-40
0.013988275 -0.10345966 0.022006305 5.0769352e-39
0.021317642 -0.10095506 0.021420691 1.3652571e-38
-0.052022673 -0.093763255 0.021031372 1.0240607e-38
-0.044629361 -0.094865546 0.021447763 2.4947261e-39
-0.03517716 -0.09539941 0.021320127 9.8713069e-41
-0.024879279 -0.095391326 0.021348884 9.9433336e-41
-0.014940519 -0.095475875 0.021557769 9.9073203e-41
-0.0048321094 -0.09532325 0.021944866 9.9073203e-41
0.0050904369 -0.095223144 0.022533827 5.4356367e-42
0.014647826 -0.094870985 0.02267655 5.5789475e-40
0.024221193 -0.0939309 0.022070395 4.615957e-39
0.031764004 -0.091612957 0.021492995 1.1715385e-38
-0.061004564 -0.080777451 0.020037422 9.4097626e-39
-0.053820126 -0.084381059 0.021255687 4.8914579e-39
-0.045320567 -0.085742466 0.021186586 8.3520051e-40
-0.035071738 -0.085879222 0.020912616 9.8711668e-41
-0.024849899 -0.085716613 0.020894814 9.7629865e-41
-0.015003162 -0.085302696 0.020908505 5.7943691e-42
-0.0048706341 -0.085405231 0.021100996 9.8711668e-41
0.0052299616 -0.085437611 0.021611942 9.9431935e-41
0.015197691 -0.085223041 0.022174079 9.79914e-41
0.024904937 -0.084905729 0.022580655 3.7350349e-40
0.034142107 -0.084211692 0.022182729 3.5088864e-39
0.04301751 -0.081904456 0.021459799 1.1715744e-38
0.050368506 -0.080046237 0.021177953 1.6325901e-38
-0.062657304 -0.074519455 0.020812832 8.1186665e-39
-0.055445477 -0.075940527 0.020717796 1.8490007e-39
-0.045385044 -0.076696023 0.020453773 4.6821586e-40
-0.034420874 -0.076029323 0.02025664 9.9431935e-41
-0.024546929 -0.075899921 0.020440172 6.1531016e-42
-0.014617323 -0.075945139 0.020587225 5.7929679e-42
-0.0047527775 -0.075478591 0.020755481 5.0712991e-42
0.0052365959 -0.075369261 0.021043479 6.1545029e-42
0.015367864 -0.075441517 0.021391034 9.9073203e-41
0.02520464 -0.075219877 0.021913065 9.8351534e-41
0.03512181 -0.074878126 0.02270408 5.5717308e-40
0.044790097 -0.074131444 0.022748806 2.6798404e-39
0.05391692 -0.072600864 0.022349508 8.2141075e-39
0.061166938 -0.070845202 0.021432905 1.1165081e-38
-0.070096433 -0.062890872 0.020020077 1.9093531e-38
-0.064406835 -0.066181399 0.020533765 8.9487845e-39
-0.056637324 -0.067187905 0.020471558 1.3905379e-39
-0.047131907 -0.069262557 0.020130334 2.859896e-40
-0.033906169 -0.06938839 0.020053476 1.9127023e-40
-0.023456279 -0.066240408 0.020189652 6.8747703e-42
-0.014611073 -0.066321485 0.020314705 3.9922993e-42
-0.0043334351 -0.065714046 0.020527007 3.629363e-42
0.0053081349 -0.065558739 0.020719748 4.7097641e-42
0.015223267 -0.065298326 0.020890562 4.7111654e-42
0.025490679 -0.065088622 0.021282818 5.4328341e-42
0.035468314 -0.064754188 0.022621267 9.5824993e-41
0.045224797 -0.064839244 0.023826906 2.8238126e-40
0.054792132 -0.064629197 0.023957362 1.57349e-39
0.063890912 -0.063549064 0.023079515 6.2765531e-39
0.07132937 -0.061240032 0.021845497 1.2731685e-38
-0.064786315 -0.058918364 0.020132611 1.0054775e-38
-0.012004076 -0.058417618 0.020243548 6.511834e-42
-0.0041892049 -0.057407167 0.020248756 9.7989999e-41
0.0060494184 -0.056038041 0.020357607 6.1531016e-42
0.015548306 -0.055822566 0.020543428 5.0712991e-42
0.025868962 -0.054831199 0.021390131 2.9076943e-42
0.035544965 -0.054874774 0.02324477 9.6543859e-41
0.045216952 -0.054872219 0.024373055 3.2664267e-42
0.055052355 -0.054980516 0.024628507 9.5101923e-41
0.064718373 -0.054880742 0.024137935 6.5080505e-40
0.074061483 -0.054053456 0.023202799 4.9850913e-39
0.082183711 -0.051742759 0.022381712 9.7817821e-39
0.006508267 -0.047691599 0.020129222 3.2664267e-42
0.017174685 -0.045268595 0.020508766 3.267828e-42
0.025979429 -0.044768348 0.02179721 9.5463458e-41
0.035412233 -0.04492547 0.023931095 3.6251591e-42
0.044914115 -0.045111388 0.024928918 4.6532638e-40
0.054944981 -0.045166109 0.024846707 2.7741884e-39
0.06505505 -0.045146298 0.024988521 1.5741963e-39
0.074804097 -0.044867378 0.024211826 4.6641238e-40
0.084157251 -0.044327099 0.023200955 3.7869082e-39
0.092468172 -0.042150859 0.021990031 1.1533146e-38
0.017246056 -0.034141921 0.020808196 2.9076943e-42
0.025690192 -0.034648608 0.022415174 9.5100522e-41
0.035220739 -0.034966223 0.024185093 4.7097641e-42
0.044930372 -0.034937281 0.02515009 5.5788354e-40
0.054907925 -0.034962341 0.025379522 3.5121164e-39
0.065221995 -0.034946222 0.025457677 2.9574923e-39
0.074784718 -0.035136651 0.02424706 9.582219e-41
0.084763356 -0.035155229 0.023331525 6.5224838e-40
0.094495021 -0.034547929 0.022342756 3.879108e-39
0.10318666 -0.032568268 0.021585613 1.0333525e-38
0.11095741 -0.030371889 0.020680338 1.1626072e-38
0.0092290053 -0.022134505 0.02034297 9.582219e-41
0.016630102 -0.024283526 0.021494513 9.4740388e-41
0.025298333 -0.024803553 0.022969142 9.7625661e-41
0.035158638 -0.025009517 0.024014037 5.4286303e-42
0.045068741 -0.024988782 0.024787946 4.3482291e-42
0.054989275 -0.024918571 0.025035845 1.8837795e-40
0.064836323 -0.025146537 0.024471955 9.6183725e-41
0.07457909 -0.025318401 0.023198543 9.7625661e-41
0.084880441 -0.025403786 0.022129824 9.90704e-41
0.095178694 -0.025105277 0.022341611 5.5897235e-40
0.10460211 -0.024605758 0.02223373 2.9575063e-39
0.1133552 -0.023235667 0.021866182 8.950588e-39
0.1212726 -0.020977613 0.020991342 1.2731699e-38
0.0084801139 -0.013595504 0.020921154 9.474319e-41
0.01566964 -0.014971086 0.022006696 9.7985795e-41
0.025175391 -0.015055169 0.023084102 9.2774787e-40
0.035081174 -0.015135924 0.023684692 9.762426e-41
0.044989735 -0.015208605 0.024137706 9.7265528e-41
0.054812215 -0.015453652 0.023535142 5.4286303e-42
0.064551972 -0.015781913 0.022448828 9.6542458e-41
0.074513562 -0.016014894 0.021426942 1.9054576e-40
0.085371159 -0.015450212 0.02133338 9.9792069e-41
0.095413961 -0.015227132 0.021848334 1.001522e-40
0.10504439 -0.01515684 0.022162158 2.8346586e-40
0.11484104 -0.014877599 0.022392128 2.8649491e-39
0.12396096 -0.013664872 0.02191974 7.3829007e-39
0.13200031 -0.011612733 0.020988777 1.3930235e-38
-0.0032675765 -5.2111984e-05 0.020180129 2.0195916e-38
0.0076098754 -0.0053291828 0.021206638 2.8238126e-40
0.015288084 -0.0050918963 0.022135012 1.2986968e-39
0.025036449 -0.0053645167 0.022521054 7.846397e-39
0.035073895 -0.0052872654 0.023173917 2.403601e-39
0.044785254 -0.0054920227 0.022926942 9.7985795e-41
0.0543813 -0.006055281 0.021851569 9.6543859e-41
0.064402021 -0.006296841 0.020925006 9.7627063e-41
0.075203046 -0.0053538238 0.020682085 9.8711668e-41
0.085561946 -0.0053349123 0.020932226 1.0087247e-40
0.095396444 -0.0052472078 0.021472208 1.01234e-40
0.10508873 -0.0051832241 0.021913411 1.9271077e-40
0.11508213 -0.0052117626 0.022172742 4.6821726e-40
0.12498127 -0.0049755746 0.022279123 1.7589603e-39
0.13449684 -0.0040955674 0.02201711 5.8152149e-39
0.1423634 -0.0017601164 0.021558193 1.0241687e-38
-0.0017329864 0.0045896899 0.020718129 1.4758188e-38
0.0058011981 0.0055082338 0.020946467 4.4301126e-39
0.015531721 0.0046216017 0.021751991 5.6041149e-40
0.025114311 0.004857461 0.022057666 3.4191991e-39
0.034845769 0.0046039768 0.02218982 1.021747e-39
0.043932863 0.0034800246 0.021633744 9.7627063e-41
0.053582851 0.0026368266 0.020638814 9.7988598e-41
0.066290744 0.0037602286 0.020335313 5.0712991e-42
0.075499542 0.0044338624 0.020503556 1.0087387e-40
0.085408866 0.0044580903 0.020711416 1.0159414e-40
0.095323876 0.0046598236 0.021132018 1.0087387e-40
0.10522798 0.00489217 0.02155393 1.930695e-40
0.11505413 0.0048563941 0.021829164 1.9271077e-40
0.12516963 0.00493351 0.022085685 2.8418613e-40
0.13506529 0.0050524515 0.022399131 1.1135881e-39
0.14440732 0.0056076497 0.022299547 4.063135e-39
0.15226221 0.0072863186 0.021924252 8.6736423e-39
0.0076057911 0.012577751 0.02102848 1.1622096e-38
0.015352664 0.014450984 0.021091955 4.5223082e-39
0.024851445 0.014251343 0.021346029 7.4480415e-40
0.033378158 0.012756506 0.021232912 3.7637896e-40
0.041498143 0.011375136 0.020338446 5.6005415e-40
0.059598308 0.013579084 0.020041594 3.629363e-42
0.067747064 0.012669268 0.02020899 9.90704e-41
0.076487474 0.013739771 0.020329563 1.001536e-40
0.08537703 0.014849374 0.020469435 1.01234e-40
0.095696986 0.014680452 0.020874884 1.0087247e-40
0.10518 0.014815975 0.021339891 1.930695e-40
0.11509004 0.014864837 0.021668412 1.9271077e-40
0.12528665 0.014892341 0.021903146 1.930709e-40
0.13513093 0.015004591 0.022324082 1.9234923e-40
0.14498881 0.015099666 0.022803301 9.2883808e-40
0.15366998 0.015549375 0.022262625 4.70851e-39
0.16075493 0.019010421 0.020572845 1.4943685e-38
0.017562829 0.021902949 0.020712575 1.2913555e-38
0.024891099 0.023894321 0.020802893 6.2736693e-39
0.033503156 0.025982516 0.020434828 4.2446423e-39
0.04166577 0.029471982 0.020250704 3.507799e-39
0.078274816 0.021724701 0.020111417 1.9523451e-40
0.086793847 0.024726816 0.020396329 1.0195287e-40
0.095520072 0.02498514 0.020746956 1.0087527e-40
0.10510015 0.024761382 0.021169817 1.9343104e-40
0.11511717 0.024645876 0.021380516 1.930709e-40
0.12537155 0.024820015 0.021709519 2.8526793e-40
0.13523056 0.02497647 0.022303509 1.9271077e-40
0.14497358 0.024833649 0.023096872 3.7530276e-40
0.15424238 0.024758898 0.022176431 3.6943609e-39
0.16062222 0.022602137 0.020980518 1.6142932e-38
0.027348783 0.030424928 0.020262837 1.5310639e-38
0.035543457 0.031668153 0.020352917 7.4714936e-39
0.045506064 0.034577038 0.020564457 5.7204927e-39
0.052789621 0.038004328 0.020443499 5.4460624e-39
0.08688587 0.034176867 0.020267226 1.02313e-40
0.095822178 0.034523811 0.0206865 1.0195427e-40
0.1052351 0.034412734 0.020904265 1.9378977e-40
0.11539018 0.034901533 0.021156128 2.859882e-40
0.12535878 0.034911439 0.021707758 2.859882e-40
0.13527185 0.034877993 0.022594744 1.9235204e-40
0.14466549 0.034501292 0.022496788 8.3520471e-40
0.15293901 0.034025937 0.02168737 4.7999923e-39
0.039336994 0.040355153 0.020138539 1.7064175e-38
0.055801492 0.043148458 0.020756103 7.0126706e-39
0.063227095 0.047603063 0.020323385 2.9567832e-39
0.074530534 0.048015933 0.020104742 2.8707e-40
0.088083006 0.046544757 0.020217527 1.02313e-40
0.095572814 0.044921465 0.020415135 1.0231441e-40
0.1057822 0.044969201 0.020675847 1.9451144e-40
0.1154336 0.045084741 0.021146392 2.8634833e-40
0.12528108 0.045126252 0.021907799 1.919933e-40
0.13480772 0.044621337 0.021983361 1.2036313e-39
0.14397904 0.043506764 0.021561764 5.8141401e-39
0.15189756 0.041435901 0.020807793 9.687081e-39
0.066848271 0.053346302 0.020583328 4.4304741e-39
0.074939743 0.055760227 0.020697776 2.0359059e-39
0.084964812 0.056498468 0.020537026 2.859854e-40
0.095169492 0.056018353 0.020559896 1.9487157e-40
0.10564697 0.055500679 0.020878213 2.8671127e-40
0.11539868 0.055018928 0.021707999 6.5333439e-40
0.1250235 0.054422382 0.021894222 2.7713199e-39
0.13352065 0.05308352 0.021333689 6.3669565e-39
0.14122362 0.051076755 0.02037842 1.0055506e-38
0.067847557 0.061161429 0.020154035 1.171393e-38
0.076602206 0.063421257 0.020635709 5.6293733e-39
0.085696876 0.064003207 0.021330331 1.2065054e-39
0.095231809 0.065149121 0.02168249 1.0228358e-39
0.10513321 0.065173388 0.021690931 9.2992128e-40
0.11464453 0.064479679 0.021257788 2.3099845e-39
0.12331203 0.062447798 0.021098876 8.3952618e-39
0.13113707 0.060325019 0.020722646 8.7629709e-39
0.077429287 0.071552075 0.020283885 6.0881948e-39
0.085900232 0.075133614 0.020383712 5.7204927e-39
0.096106276 0.075386621 0.021136457 3.87695e-39
0.10487378 0.07431224 0.021124477 4.1535383e-39
0.11302629 0.072186217 0.020778393 9.7781976e-39
0.088182792 0.08016526 0.020120144 9.2948127e-41
0.093863472 0.080558285 0.02031206 1.2359656e-38
0.10330088 0.080464855 0.020454969 1.0239167e-38
0.054840941 -0.060433239 0.030333746 1.2455461e-38
0.046843357 -0.051187564 0.030287888 3.6321656e-42
0.056049317 -0.053959832 0.030362293 2.9575119e-39
0.061900083 -0.052157171 0.030426713 3.784767e-39
0.039452717 -0.044047169 0.030237192 3.2734332e-42
0.04548211 -0.044569235 0.030541334 1.4816447e-39
0.054081231 -0.044005506 0.030638933 3.0529403e-39
0.064652048 -0.045629598 0.030508053 5.6222336e-40
0.071810499 -0.042860813 0.030405121 3.7861963e-39
0.038643789 -0.035434946 0.030229613 1.4643569e-42
0.045289814 -0.035509642 0.030400703 1.2068585e-39
0.055670299 -0.034742273 0.03084122 2.038424e-39
0.063726939 -0.035859514 0.030520666 6.5656999e-40
0.071821101 -0.039487824 0.030158222 1.9379537e-40
0.048004873 -0.025455745 0.030408239 4.729032e-40
0.054732922 -0.027390841 0.030410202 3.8034463e-40
0.062315933 -0.027826786 0.03024333 2.8670146e-40
