# .PCD v0.7 - Point Cloud Data file format
VERSION 0.7
FIELDS x y z
SIZE 4 4 4
TYPE F F F
COUNT 1 1 1
WIDTH 1490
HEIGHT 1
VIEWPOINT 0 0 0 1 0 0 0
POINTS 1490
DATA ascii
-0.87421656 -0.15399262 1.8330001
-0.86745203 -0.15279889 1.8330001
-0.88177693 -0.14643227 1.8330001
-0.87472826 -0.14529537 1.8330002
-0.86745203 -0.14802392 1.8330001
-0.87222707 -0.13529068 1.8330001
-0.86745203 -0.13369903 1.8330001
-0.86586034 -0.12574075 1.8330001
-0.85153544 -0.1241491 1.8330001
-0.84477097 -0.12534285 1.8330001
-0.83522099 -0.12613867 1.8330001
-0.82925236 -0.12574075 1.8330001
-0.86267704 -0.11937413 1.8330001
-0.85471874 -0.11937413 1.8330001
-0.84357715 -0.11300751 1.8330001
-0.83614957 -0.11619081 1.8330001
-0.8292523 -0.11778247 1.8330001
-0.86267704 -0.10345757 1.8330001
-0.85517347 -0.10345758 1.8330002
-0.84622997 -0.10451868 1.8330001
-0.83698326 -0.10482185 1.8330002
-0.8292523 -0.10664089 1.8330001
-0.86235869 -0.093270995 1.8330001
-0.85471874 -0.093907654 1.8329999
-0.84357715 -0.094703481 1.8330001
-0.83752888 -0.09327098 1.8330001
-0.79741919 -0.093907647 1.8330001
-0.86426872 -0.085949376 1.8330001
-0.85312712 -0.08515355 1.8330001
-0.84198552 -0.082766064 1.8330001
-0.8360737 -0.085267238 1.8330002
-0.826069 -0.085949376 1.8330001
-0.79741919 -0.085949376 1.8330001
-0.84198552 -0.077991098 1.8330001
-0.83668005 -0.073746696 1.8330001
-0.826069 -0.07162448 1.8330001
-0.84198552 -0.065257855 1.8330001
-0.83402729 -0.065257862 1.8330001
-0.82766068 -0.065257855 1.8330001
-0.81524575 -0.063984536 1.8330001
-0.80696911 -0.062074546 1.8330001
-0.84198552 -0.055707928 1.8330001
-0.82288569 -0.055707928 1.8330001
-0.81651902 -0.055707928 1.8330001
-0.8037858 -0.05464682 1.8330001
-0.79487258 -0.053797942 1.8330001
-0.78627759 -0.052524615 1.8330001
-0.82288563 -0.049341306 1.8330001
-0.81333572 -0.04854548 1.8330001
-0.80484694 -0.046688549 1.8330001
-0.79359925 -0.048067983 1.8330001
-0.78468591 -0.048067983 1.8330001
-0.77672768 -0.046157997 1.8330001
-0.76876938 -0.042974688 1.8330001
-0.7316308 -0.046157997 1.8330001
-0.81015241 -0.031833101 1.8330001
-0.80407518 -0.035450503 1.8330001
-0.79423589 -0.036608066 1.8330001
-0.77301377 -0.037669171 1.8330001
-0.76558608 -0.034334272 1.8330002
-0.74011958 -0.033424757 1.8330001
-0.73375297 -0.03501641 1.8330001
-0.76399446 -0.023874825 1.8330001
-0.7643128 -0.01559822 1.8330001
-0.75762779 -0.014324895 1.8330001
-0.74807787 -0.014324895 1.8330001
-0.73056966 -0.017508205 1.8330001
-0.76399446 -0.0063666198 1.8330001
-0.75603616 -0.0042444132 1.8330001
-0.74860847 -0.0026527585 1.8330001
-0.75285286 0.0079582753 1.8330001
-0.74648625 0.0015916551 1.8330001
-0.75285286 0.014324895 1.8330001
-0.73693627 0.017508205 1.8330001
-0.74139291 0.024511488 1.8330001
-0.74011958 0.030241447 1.8330001
-0.73693627 0.033424757 1.8330001
-0.73269188 0.045096897 1.8330001
-0.72579467 0.049341306 1.8330001
-0.72579467 0.052524615 1.8330001
-0.72579473 0.066849515 1.8330001
-0.72420305 0.07162448 1.8330001
-0.89522928 -0.23653002 1.8430001
-0.88712096 -0.23311596 1.8430002
-0.8721844 -0.22244704 1.8430001
-0.86898375 -0.22244704 1.8430001
-0.86818355 -0.21604568 1.8430001
-0.86610311 -0.2038831 1.8430003
-0.85709554 -0.20278576 1.8430002
-0.84977967 -0.20324297 1.8430001
-0.86578304 -0.19604146 1.8430001
-0.85511416 -0.19470786 1.8430002
-0.84897953 -0.19284078 1.8430001
-0.86578304 -0.1816384 1.8430001
-0.85938174 -0.18083824 1.8430001
-0.84537876 -0.1848391 1.8430002
-0.87378478 -0.1712362 1.8430001
-0.86898375 -0.17763756 1.8430001
-0.85618103 -0.17489414 1.8430002
-0.84897947 -0.17523706 1.8430001
-0.87498504 -0.16443478 1.8430002
-0.84977967 -0.1664352 1.8430001
-0.87378478 -0.1584335 1.8430001
-0.86486864 -0.15477557 1.8430002
-0.85724795 -0.15469937 1.8430002
-0.87378478 -0.14403045 1.8430001
-0.86578304 -0.14803131 1.8430001
-0.85538089 -0.14803131 1.8430001
-0.84497869 -0.14723113 1.8430001
-0.8721844 -0.13922943 1.8430001
-0.86898375 -0.13282809 1.8430001
-0.8540473 -0.13389498 1.8430002
-0.84480083 -0.13496187 1.8430002
-0.8350566 -0.13474849 1.8430001
-0.86538297 -0.12682682 1.8430002
-0.85746139 -0.127707 1.8430001
-0.83057564 -0.12429295 1.8430002
-0.82737494 -0.12429295 1.8430002
-0.80390334 -0.12215917 1.8430002
-0.79856884 -0.12002538 1.8430001
-0.83423358 -0.11316679 1.8430002
-0.8265748 -0.11282385 1.8430001
-0.81329197 -0.11234375 1.8430001
-0.80625051 -0.11490428 1.8430001
-0.79856884 -0.1168247 1.8430001
-0.85938174 -0.10082132 1.8430001
-0.8337763 -0.10362192 1.8430002
-0.82417428 -0.104022 1.8430002
-0.81457222 -0.10722267 1.8430001
-0.84017766 -0.097620644 1.8430001
-0.8337763 -0.094419971 1.8430002
-0.82417428 -0.094877213 1.8430002
-0.81670606 -0.095486864 1.8430002
-0.8049702 -0.096020304 1.8430001
-0.78896683 -0.096020304 1.8430001
-0.84017766 -0.081617258 1.8430001
-0.8337763 -0.083537661 1.8430001
-0.82417423 -0.084817931 1.8430002
-0.81777292 -0.083217591 1.8430001
-0.84017766 -0.078416578 1.8430001
-0.83377635 -0.07613039 1.8430002
-0.82417423 -0.075215913 1.8430002
-0.8150295 -0.07613039 1.8430002
-0.80817086 -0.075215906 1.8430001
-0.83270943 -0.066680774 1.8430002
-0.82609475 -0.066254012 1.8430001
-0.81377208 -0.068014383 1.8430001
-0.80817091 -0.065613881 1.8430002
-0.7345553 -0.062413197 1.8430001
-0.81137156 -0.054411508 1.8430001
-0.8049702 -0.058412351 1.8430001
-0.794568 -0.057612181 1.8430001
-0.78576612 -0.055478401 1.8430002
-0.77936476 -0.054411508 1.8430001
-0.73775601 -0.052811168 1.8430001
-0.81457222 -0.041608796 1.8430001
-0.77563065 -0.047476709 1.8430002
-0.76656216 -0.042294659 1.8430002
-0.75375932 -0.041608796 1.8430001
-0.74255705 -0.043209136 1.8430002
-0.73775601 -0.048010148 1.8430001
-0.81457222 -0.036807783 1.8430001
-0.76496172 -0.034674 1.8430002
-0.75415945 -0.033607107 1.8430002
-0.74223691 -0.033607107 1.8430001
-0.76176113 -0.024005076 1.8430002
-0.75415945 -0.023604991 1.8430002
-0.74543762 -0.023364943 1.8430001
-0.73775601 -0.024005076 1.8430002
-0.7601608 -0.014403045 1.8430002
-0.75375938 -0.014403045 1.8430002
-0.74575776 -0.014403045 1.8430002
-0.76016074 -0.0080016917 1.8430001
-0.75295913 -0.0072015226 1.8430001
-0.74507195 -0.0043437756 1.8430002
-0.73615563 -0.0016003384 1.8430001
-0.75162554 0.0069347993 1.8430002
-0.7445575 0.0048010154 1.8430002
-0.73775601 0.0032006768 1.8430001
-0.75055867 0.012802707 1.8430001
-0.74415731 0.012802708 1.8430002
-0.73775601 0.016003383 1.8430001
-0.74095666 0.024005076 1.8430002
-0.74095666 0.030406429 1.8430001
-0.73615563 0.036807783 1.8430001
-0.73375511 0.043209136 1.8430001
-0.72815394 0.044809476 1.8430001
-0.87048078 -0.22043598 1.853
-0.86404467 -0.22043598 1.853
-0.85760856 -0.22043598 1.853
-0.87048078 -0.21239087 1.853
-0.86404467 -0.21399988 1.853
-0.85599965 -0.2139999 1.853
-0.84312737 -0.21721794 1.853
-0.83830029 -0.21560891 1.853
-0.82221007 -0.21078184 1.853
-0.8543905 -0.20434575 1.853
-0.84393191 -0.20193222 1.853
-0.85117251 -0.19630066 1.853
-0.8447364 -0.19469163 1.853
-0.8543905 -0.18503749 1.853
-0.84420007 -0.18396482 1.853
-0.83548456 -0.18503749 1.8529999
-0.82221007 -0.18503749 1.853
-0.871768 -0.17473976 1.853
-0.86468834 -0.17473976 1.853
-0.85117251 -0.17377435 1.853
-0.8447364 -0.17538336 1.853
-0.83548456 -0.1749811 1.8529999
-0.82414097 -0.17538337 1.853
-0.81738305 -0.17377435 1.853
-0.7932477 -0.17860141 1.853
-0.87208974 -0.16572924 1.853
-0.86404467 -0.16572924 1.853
-0.8543905 -0.16526952 1.853
-0.8447364 -0.16572924 1.853
-0.83508229 -0.16572924 1.853
-0.82542819 -0.16733825 1.853
-0.81899208 -0.16733825 1.853
-0.80451083 -0.1625112 1.853
-0.87369877 -0.15768412 1.853
-0.86082661 -0.15607511 1.853
-0.85398829 -0.15647738 1.8529999
-0.8447364 -0.15607511 1.853
-0.83462262 -0.15699455 1.853
-0.82703722 -0.15607512 1.853
-0.81738305 -0.1568796 1.853
-0.80772889 -0.15929314 1.853
-0.87262607 -0.14427561 1.853
-0.86404467 -0.14481196 1.853
-0.85385418 -0.1453483 1.853
-0.84433419 -0.14642097 1.8529999
-0.83508235 -0.14642097 1.853
-0.82634759 -0.14596125 1.853
-0.81657857 -0.14400744 1.853
-0.80772889 -0.14320293 1.853
-0.871768 -0.13741046 1.853
-0.86444694 -0.13716911 1.8529999
-0.85439056 -0.13998489 1.853
-0.8447364 -0.13998489 1.853
-0.83462256 -0.1376863 1.853
-0.82542801 -0.13515782 1.8530002
-0.81577396 -0.13515782 1.8530002
-0.80641246 -0.13471898 1.8530002
-0.79485673 -0.13354883 1.8530002
-0.83347327 -0.12711272 1.853
-0.82542807 -0.12389468 1.853
-0.8161763 -0.12429693 1.8529999
-0.80504721 -0.12604004 1.853
-0.79485673 -0.12389468 1.8530002
-0.7835936 -0.12067663 1.853
-0.83508229 -0.11424054 1.853
-0.82542819 -0.11515999 1.853
-0.81899208 -0.11584956 1.853
-0.80611986 -0.11263151 1.853
-0.79485673 -0.11424054 1.8530002
-0.78252095 -0.11316785 1.853
-0.77587026 -0.11359693 1.853
-0.82221007 -0.10297739 1.853
-0.81577402 -0.10418416 1.8529999
-0.80611986 -0.1045864 1.853
-0.79485673 -0.10458641 1.8530002
-0.78359348 -0.10458641 1.853
-0.77554846 -0.10458641 1.853
-0.82650083 -0.093859605 1.853
-0.81537175 -0.094530024 1.8529999
-0.80483276 -0.09428867 1.853
-0.79517859 -0.094610482 1.853
-0.78359354 -0.094932288 1.853
-0.77522665 -0.095575891 1.853
-0.73532295 -0.098150328 1.853
-0.82221007 -0.088496193 1.853
-0.81577402 -0.085278153 1.853
-0.80665624 -0.085278153 1.853
-0.79441792 -0.0855707 1.8530002
-0.78439808 -0.08769168 1.853
-0.81496954 -0.074014999 1.853
-0.80652213 -0.075221762 1.8529999
-0.79646575 -0.075624026 1.853
-0.78037554 -0.072405979 1.853
-0.77393949 -0.075624019 1.853
-0.82221007 -0.065969892 1.853
-0.81899208 -0.065969892 1.853
-0.80611992 -0.065969892 1.853
-0.79646575 -0.065050453 1.853
-0.78278905 -0.063556358 1.853
-0.77393943 -0.064682662 1.853
-0.741759 -0.062751845 1.853
-0.81899208 -0.056315761 1.853
-0.79485673 -0.059533805 1.853
-0.78230637 -0.057602979 1.853
-0.77393943 -0.056315761 1.853
-0.76621622 -0.055672158 1.853
-0.75463116 -0.054384936 1.853
-0.74497712 -0.056315765 1.853
-0.77286673 -0.048806991 1.853
-0.76428533 -0.045454863 1.8529999
-0.75391608 -0.046304066 1.853
-0.74658608 -0.049879674 1.853
-0.76428533 -0.032180436 1.853
-0.75221765 -0.033789456 1.853
-0.75302219 -0.027353369 1.853
-0.74497712 -0.024135327 1.853
-0.74336809 -0.014481196 1.853
-0.73854095 -0.014481195 1.853
-0.74336803 -0.0064360872 1.853
-0.7363956 -0.0037543839 1.853
-0.74336803 0.0064360872 1.853
-0.73693198 0.0048270654 1.853
-0.741759 0.011263152 1.853
-0.73693198 0.014481197 1.853
-0.741759 0.024135327 1.853
-0.7377364 0.023330815 1.853
-0.741759 0.032180436 1.853
-0.7359665 0.034433063 1.853
-0.73532295 0.040225543 1.853
-0.72888684 0.040225543 1.853
-0.8654722 -0.22378254 1.8630002
-0.85657483 -0.22243443 1.863
-0.84929514 -0.2216256 1.863
-0.85414827 -0.21515477 1.8630002
-0.84670687 -0.21321355 1.8630002
-0.83743203 -0.21299784 1.8630002
-0.82745612 -0.21353707 1.863
-0.85360903 -0.20760548 1.8630002
-0.84552062 -0.20652702 1.8630002
-0.83716232 -0.2062574 1.863
-0.82502961 -0.20706624 1.863
-0.81370568 -0.20544855 1.863
-0.80723482 -0.20544854 1.863
-0.79591084 -0.20383084 1.863
-0.84282434 -0.19574231 1.8630002
-0.83635348 -0.19574232 1.863
-0.82664734 -0.19574231 1.8630002
-0.8141678 -0.19666673 1.8630002
-0.80723482 -0.19574231 1.863
-0.79429317 -0.19574231 1.8630002
-0.83392698 -0.18603608 1.863
-0.82462519 -0.18603607 1.863
-0.81424493 -0.18657532 1.8630002
-0.80399942 -0.18280068 1.8630002
-0.79429317 -0.18280068 1.8630002
-0.83419657 -0.17740832 1.8630002
-0.82449043 -0.17686908 1.8630002
-0.81370568 -0.17632987 1.863
-0.80492383 -0.17679207 1.8630002
-0.79105777 -0.17956527 1.863
-0.83311808 -0.16338821 1.863
-0.82341194 -0.16379264 1.863
-0.81411004 -0.16702804 1.863
-0.80370522 -0.16515298 1.8630003
-0.79458731 -0.16456473 1.8630003
-0.78674388 -0.16123126 1.8630002
-0.77488071 -0.16177049 1.863
-0.84282434 -0.15368198 1.863
-0.83958894 -0.15368198 1.863
-0.823412 -0.15321977 1.8630002
-0.81370556 -0.15368196 1.863
-0.80399942 -0.15368198 1.863
-0.79429322 -0.15368198 1.863
-0.78652823 -0.15368198 1.8630002
-0.77488071 -0.15691739 1.863
-0.75546825 -0.15044656 1.863
-0.82341188 -0.14721116 1.863
-0.81370562 -0.14721116 1.8630002
-0.80399942 -0.14397575 1.863
-0.79429317 -0.14397576 1.863
-0.78551131 -0.14351355 1.8630002
-0.75331134 -0.14289728 1.8630002
-0.79105777 -0.13426952 1.8630002
-0.78499132 -0.1338651 1.863
-0.79105777 -0.12456329 1.8630002
-0.78418249 -0.1249677 1.863
-0.77488077 -0.12456328 1.863
-0.76679224 -0.12456328 1.8630002
-0.75870365 -0.12779869 1.863
-0.79105777 -0.11647476 1.863
-0.78782237 -0.11809247 1.863
-0.77395642 -0.11531926 1.8630002
-0.76557887 -0.11445263 1.863
-0.75708592 -0.11162165 1.863
-0.77326298 -0.10515082 1.8630002
-0.76517445 -0.10515083 1.863
-0.75708592 -0.10676853 1.863
-0.78135157 -0.09220919 1.863
-0.77326298 -0.09544459 1.8630002
-0.76517445 -0.095444597 1.863
-0.75870365 -0.098680004 1.863
-0.74252665 -0.095444605 1.8630002
-0.80561709 -0.082502961 1.863
-0.79105777 -0.082502961 1.863
-0.78412479 -0.084813967 1.8630002
-0.77488077 -0.085738368 1.863
-0.76517451 -0.082502961 1.8630002
-0.74576205 -0.087356076 1.863
-0.80480826 -0.076840982 1.863
-0.79429317 -0.076032132 1.863
-0.78458697 -0.076436564 1.863
-0.77326298 -0.076032147 1.8630002
-0.76517445 -0.076032147 1.863
-0.80399942 -0.069561318 1.863
-0.79375398 -0.067404382 1.8630002
-0.78458691 -0.068267159 1.8630002
-0.77293944 -0.066972993 1.8630002
-0.76517445 -0.066325903 1.863
-0.75639272 -0.065863706 1.8630002
-0.74640912 -0.066325903 1.8630002
-0.76517451 -0.056619681 1.8630002
-0.75627708 -0.059046235 1.863
-0.74252659 -0.011323935 1.863
-0.74252659 -0.0080885254 1.863
-0.73929119 -0.0080885254 1.863
-0.73929119 0.02588328 1.863
-0.73929119 0.030736396 1.863
-0.87337059 -0.22606799 1.8730001
-0.86035943 -0.22606799 1.8730001
-0.85710669 -0.22606799 1.8730001
-0.84084284 -0.21630965 1.8730001
-0.83759004 -0.21630965 1.8730001
-0.84192705 -0.20655134 1.8730001
-0.83515042 -0.20411175 1.8730001
-0.82620525 -0.20167217 1.8730001
-0.81156778 -0.20167217 1.8730001
-0.80571282 -0.20134687 1.8730001
-0.83433723 -0.19354022 1.8730001
-0.82457888 -0.1951666 1.8730001
-0.81400734 -0.19272703 1.8730001
-0.80560446 -0.19462448 1.8730001
-0.83433723 -0.18703467 1.8730001
-0.82457888 -0.18703467 1.8730001
-0.81563377 -0.18622147 1.8730001
-0.80831504 -0.18703467 1.8730001
-0.79855669 -0.18052912 1.8730001
-0.80343586 -0.17564994 1.8730001
-0.7958461 -0.17402357 1.8730001
-0.78879839 -0.17077078 1.8730001
-0.79205114 -0.167518 1.8730001
-0.78513896 -0.16467184 1.8730001
-0.77513665 -0.16361468 1.8730001
-0.76548672 -0.1637231 1.8730001
-0.75871021 -0.16345203 1.8730001
-0.78461629 -0.15450689 1.8730003
-0.77538061 -0.1541003 1.8730001
-0.76602894 -0.15450689 1.8730003
-0.75627059 -0.15543626 1.8730003
-0.74976504 -0.15450689 1.8730001
-0.78359395 -0.14539912 1.8730001
-0.77578723 -0.14474857 1.8730003
-0.766029 -0.14474857 1.8730003
-0.75708383 -0.14474857 1.8730001
-0.74976504 -0.14149579 1.8730001
-0.78310597 -0.13580343 1.8730001
-0.77578723 -0.13499025 1.8730003
-0.76602894 -0.13499025 1.8730003
-0.75627065 -0.13661662 1.8730001
-0.74976504 -0.13824302 1.8730001
-0.76472777 -0.12458135 1.8730001
-0.75667721 -0.12523191 1.8730001
-0.7638604 -0.1176421 1.8730001
-0.75843918 -0.11547358 1.8730001
-0.76277614 -0.10246247 1.8730001
-0.75627065 -0.10506469 1.8730001
-0.74813867 -0.10408886 1.8730001
-0.76277614 -0.094330527 1.8730001
-0.75627065 -0.095956907 1.8730003
-0.7497651 -0.095956914 1.8730001
-0.77253449 -0.08782497 1.8730001
-0.76556426 -0.087127961 1.8730003
-0.75681275 -0.086740717 1.8730001
-0.74976504 -0.082945809 1.8730001
-0.76277614 -0.07644026 1.8730001
-0.75627065 -0.076440252 1.8730003
-0.74976504 -0.07644026 1.8730001
-0.75518632 -0.068850443 1.8730001
-0.81263065 -0.2076541 1.8830001
-0.79955006 -0.20274889 1.8830001
-0.80690789 -0.19212092 1.8830001
-0.79955006 -0.19457352 1.8830001
-0.78646952 -0.19784367 1.8830001
-0.80609035 -0.18803327 1.8830001
-0.79562587 -0.18410908 1.8830003
-0.78319937 -0.18803325 1.8830001
-0.79464483 -0.17658775 1.8830001
-0.7871235 -0.17299061 1.8830003
-0.77379769 -0.17454392 1.8830003
-0.76521355 -0.17331761 1.8830001
-0.77404296 -0.16710433 1.8830003
-0.76030833 -0.16677731 1.8830001
-0.75540316 -0.1618721 1.8830001
-0.75376809 -0.15860195 1.8830001
-0.75703818 -0.14715645 1.8830001
-0.7619434 -0.13244081 1.8830001
-0.7548582 -0.13353086 1.8830001
-0.75458562 -0.12590052 1.8830001
-0.76030833 -0.11772516 1.8830001
-0.75540316 -0.11609008 1.8830003
-0.75540316 -0.10627966 1.8830001
-0.76030833 -0.085023731 1.8830001
-0.75703818 -0.086658798 1.8830001
-0.80093157 -0.2039333 1.8940001
-0.79654598 -0.2033851 1.8940001
-0.80175388 -0.19571018 1.8940001
-0.79482299 -0.1952403 1.8940002
-0.78777462 -0.19242093 1.8940001
-0.80093157 -0.18913169 1.8940001
-0.79341334 -0.18631233 1.8940002
-0.78448534 -0.18419783 1.8940001
-0.77681041 -0.18364963 1.8940001
-0.79270846 -0.17926395 1.8940001
-0.78580105 -0.17663255 1.8940001
-0.772973 -0.17926395 1.8940001
-0.76474988 -0.17487828 1.8940001
-0.7614606 -0.16775158 1.8940001
-0.7614606 -0.15294997 1.8940001
-0.75817138 -0.15294997 1.8940001
-0.75817138 -0.1480161 1.8940001
-0.79524052 -0.1967435 1.904
-0.7873047 -0.19277559 1.9040002
1.2588412 -0.41826662 2.3270001
1.2593586 -0.42114255 2.3430002
1.2634276 -0.42114255 2.3430002
1.259765 -0.43221205 2.3590002
1.259765 -0.42606688 2.3590002
1.2638618 -0.42401847 2.3590002
1.259765 -0.41582489 2.3590002
1.2669344 -0.41684905 2.3590002
1.2745136 -0.41582486 2.3590002
1.2822974 -0.41377646 2.3590002
1.2679586 -0.40558288 2.3590002
1.2747867 -0.40490007 2.3590002
1.2647171 -0.43120044 2.3760002
1.2647171 -0.42501098 2.3760002
1.2654049 -0.41400748 2.3760004
1.2729697 -0.4146952 2.3760002
1.2839732 -0.41331977 2.3760002
1.2936014 -0.41056886 2.3760002
1.2667803 -0.40437937 2.3760002
1.2743452 -0.40369165 2.3760002
1.2853488 -0.40369165 2.3760002
1.2667803 -0.39612675 2.3760002
1.2750329 -0.39612675 2.3760002
1.2832856 -0.39406356 2.3760002
1.2688434 -0.38993725 2.3760002
1.2750329 -0.3878741 2.3760002
1.2440856 -0.34454772 2.3760002
1.2690796 -0.43410417 2.3920002
1.2732338 -0.43825826 2.3920002
1.2690796 -0.42371887 2.3920002
1.2663102 -0.41610307 2.3920002
1.2670026 -0.40502542 2.3920002
1.2898501 -0.40087131 2.3920002
1.2940043 -0.40087131 2.3920002
1.2670026 -0.39671719 2.3920002
1.2732338 -0.3925631 2.3920002
1.2815419 -0.3925631 2.3920002
1.2748955 -0.38508567 2.3920002
1.2732338 -0.37594667 2.3920002
1.2780991 -0.44137299 2.4090002
1.27531 -0.43440026 2.4090002
1.2697318 -0.42254663 2.4090002
1.2739154 -0.42673028 2.4090002
1.2697318 -0.41417938 2.4090002
1.2683372 -0.40511489 2.4090002
1.2676399 -0.39744484 2.4090002
1.2760072 -0.39326125 2.4090002
1.2760072 -0.38489395 2.4090002
1.2780991 -0.37443489 2.4090002
1.2822826 -0.37234306 2.4090002
1.2780991 -0.36606765 2.4090002
1.2739154 -0.35770038 2.4090002
1.2772878 -0.44167894 2.4260001
1.2829052 -0.44448769 2.4260001
1.2772878 -0.43325263 2.4260001
1.2723724 -0.42552847 2.4260001
1.2660526 -0.41078246 2.4260001
1.2723722 -0.41499561 2.4260004
1.2660526 -0.40446272 2.4260001
1.2702658 -0.40446272 2.4260001
1.2660526 -0.39603642 2.4260001
1.2734257 -0.39498314 2.4260001
1.2750056 -0.38603017 2.4260004
1.2829052 -0.38129038 2.4260001
1.2772878 -0.37567282 2.4260001
1.2829052 -0.37497064 2.4260001
1.2761643 -0.36275253 2.4260004
1.2829052 -0.36654437 2.4260001
1.2660526 -0.35179833 2.4260001
1.2723724 -0.35601148 2.4260001
1.2660526 -0.34758517 2.4260001
1.2749244 -0.45184508 2.4430001
1.2770457 -0.44335973 2.4430001
1.2834097 -0.44760239 2.4430001
1.2756315 -0.43487439 2.4430001
1.2834097 -0.43911704 2.4430001
1.2728031 -0.42426768 2.4430001
1.272096 -0.41648945 2.4430003
1.2653784 -0.40411496 2.4430001
1.2706817 -0.40517563 2.4430003
1.2664391 -0.39456892 2.4430001
1.272096 -0.39386183 2.4430003
1.2740759 -0.38565931 2.4430001
1.2770457 -0.37547693 2.4430001
1.2834097 -0.37335557 2.4430001
1.2664391 -0.36274886 2.4430001
1.2749244 -0.36487019 2.4430001
1.2834097 -0.36699155 2.4430001
1.2579536 -0.35426351 2.4430001
1.2749244 -0.3585062 2.4430001
1.2410741 -0.77113211 2.46
1.2780999 -0.45214123 2.46
1.2859323 -0.45071712 2.46
1.2773879 -0.44430879 2.46
1.2752517 -0.43576443 2.46
1.2735429 -0.42593834 2.46
1.2724036 -0.41511545 2.46
1.2667073 -0.40372291 2.46
1.2709795 -0.4079951 2.46
1.2667073 -0.3909063 2.46
1.2720475 -0.39411044 2.46
1.2667073 -0.38663411 2.46
1.2752517 -0.384498 2.46
1.2667073 -0.3738175 2.46
1.2752517 -0.37595361 2.46
1.2652833 -0.36669719 2.46
1.2773879 -0.36527312 2.46
1.2624351 -0.3567287 2.46
1.2752517 -0.35566065 2.46
1.2752517 -0.34604824 2.46
1.258163 -0.33536771 2.46
1.2458518 -0.78322977 2.4780002
1.2501552 -0.78107804 2.4780002
1.2350931 -0.77677453 2.4780002
1.2437 -0.77677453 2.4780002
1.267369 -0.45401505 2.4780002
1.2738242 -0.45401505 2.4780002
1.2802794 -0.45401505 2.4780002
1.267369 -0.44971159 2.4780002
1.2742547 -0.44626886 2.4780004
1.2802794 -0.44540811 2.4780002
1.2745415 -0.43536672 2.4780002
1.2759759 -0.42604256 2.4780002
1.2802794 -0.42389083 2.4780002
1.2759759 -0.41528392 2.4780002
1.2731071 -0.403808 2.4780002
1.2731071 -0.39663559 2.4780002
1.267369 -0.38946313 2.4780002
1.2733939 -0.38429901 2.4780004
1.2802794 -0.38515967 2.4780002
1.267369 -0.37440103 2.4780002
1.2716725 -0.37440103 2.4780002
1.2802794 -0.37224931 2.4780002
1.2544587 -0.36579412 2.4780002
1.2738242 -0.36364239 2.4780002
1.2802794 -0.36579412 2.4780002
1.2544587 -0.35933891 2.4780002
1.267369 -0.350732 2.4780002
1.2745415 -0.35360098 2.4780002
1.2845829 -0.35288373 2.4780002
1.2759759 -0.34642854 2.4780002
1.2824311 -0.34427682 2.4780002
1.2587621 -0.33782163 2.4780002
1.2375625 -0.79108644 2.4960001
1.2440647 -0.79325378 2.4960001
1.2505667 -0.79325378 2.4960001
1.2375625 -0.78458434 2.4960001
1.2440647 -0.78675169 2.4960001
1.2505667 -0.78675169 2.4960001
1.2447872 -0.77663743 2.4960001
1.2527342 -0.77591491 2.4960001
1.2549015 -0.74340451 2.4960001
1.2549015 -0.73690242 2.4960001
1.2679056 -0.45297825 2.4960001
1.2722404 -0.45297825 2.4960001
1.2679056 -0.44647616 2.4960001
1.2744077 -0.44647619 2.4960001
1.2809098 -0.44430882 2.4960001
1.2679056 -0.43780673 2.4960001
1.2754915 -0.43672305 2.4960001
1.2809098 -0.43347204 2.4960001
1.2765751 -0.42480257 2.4960001
1.2809098 -0.42480257 2.4960001
1.2765751 -0.41613311 2.4960001
1.2809098 -0.41613311 2.4960001
1.2754915 -0.40421265 2.4960001
1.2679056 -0.39229217 2.4960001
1.2736853 -0.39518198 2.4960001
1.2679056 -0.38579011 2.4960001
1.2744077 -0.38579011 2.4960001
1.2592362 -0.37061858 2.4960001
1.2635709 -0.37712067 2.4960001
1.2765751 -0.37061858 2.4960001
1.2592362 -0.36411649 2.4960001
1.2751303 -0.36339402 2.4960001
1.2570689 -0.3576144 2.4960001
1.2635709 -0.35544705 2.4960001
1.2744077 -0.3576144 2.4960001
1.2809098 -0.35327968 2.4960001
1.2657382 -0.34677762 2.4960001
1.2736853 -0.34605515 2.4960001
1.2846254 -0.34337178 2.4960001
1.293914 -0.34027553 2.4960001
1.2852445 -0.33594081 2.4960001
1.2377554 -0.78369343 2.5140002
1.2443044 -0.78369343 2.5140002
1.2552193 -0.77641678 2.5140004
1.2595853 -0.75313157 2.5140002
1.2557651 -0.74385387 2.5140002
1.2552193 -0.73348469 2.5140002
1.2654066 -0.73421234 2.5140004
1.2421213 -0.72693568 2.5140002
1.2563108 -0.72584414 2.5140002
1.2639513 -0.72693568 2.5140002
1.2421213 -0.71820372 2.5140002
1.2508533 -0.71820372 2.5140002
1.2661343 -0.45187894 2.5140002
1.2726833 -0.45406193 2.5140002
1.2574023 -0.44532996 2.5140002
1.2661343 -0.44532996 2.5140002
1.2726833 -0.44532996 2.5140002
1.2672257 -0.43550649 2.5140002
1.2744297 -0.43354183 2.5140002
1.2814152 -0.43441504 2.5140004
1.2683172 -0.42568305 2.5140002
1.2748662 -0.42350006 2.5140002
1.2814152 -0.42350006 2.5140002
1.275594 -0.41549575 2.5140004
1.2814152 -0.4147681 2.5140002
1.2770492 -0.40603614 2.5140002
1.2814152 -0.40821913 2.5140002
1.2737747 -0.3962127 2.5140002
1.2683172 -0.38202327 2.5140002
1.2748662 -0.38420627 2.5140002
1.2814152 -0.38202327 2.5140002
1.2683172 -0.37765729 2.5140002
1.2770492 -0.3754743 2.5140002
1.2814152 -0.3754743 2.5140002
1.2770493 -0.36455935 2.5140004
1.2814152 -0.36892533 2.5140002
1.2661343 -0.35364437 2.5140002
1.2770492 -0.3536444 2.5140002
1.2814152 -0.35582739 2.5140002
1.2595853 -0.34709543 2.5140002
1.2654066 -0.34564012 2.5140004
1.2726833 -0.34491244 2.5140002
1.2835982 -0.34709543 2.5140002
1.2945131 -0.33399749 2.5140002
1.3425388 -0.26850778 2.5140002
1.3731008 0.093868576 2.5140002
1.2576107 -0.78270876 2.5320001
1.2642065 -0.77611285 2.5320001
1.2642065 -0.76292115 2.5320001
1.2598093 -0.75412667 2.5320001
1.2642065 -0.75852394 2.5320001
1.2532134 -0.74533224 2.5320001
1.2444189 -0.73214048 2.5320001
1.2539463 -0.73507202 2.5320001
1.2422203 -0.72554463 2.5320001
1.2554121 -0.72664392 2.5320001
1.2642065 -0.72774327 2.5320001
1.2576107 -0.44631988 2.5320001
1.2664051 -0.44192263 2.5320001
1.2686038 -0.43532676 2.5320001
1.2730011 -0.43532676 2.5320001
1.2686038 -0.42653227 2.5320001
1.2751997 -0.42653227 2.5320001
1.2773983 -0.41553921 2.5320001
1.2817955 -0.41334057 2.5320001
1.2773982 -0.40454608 2.5320001
1.2817955 -0.40674472 2.5320001
1.2773982 -0.3957516 2.5320001
1.2773982 -0.38915575 2.5320001
1.2773982 -0.34518334 2.5320001
1.3462884 -0.27336177 2.5320001
1.3741375 -0.068157218 2.5320001
1.3829321 0.09014342 2.5320001
1.2559721 -0.79079729 2.5510001
1.2604023 -0.79079729 2.5510001
1.2471117 -0.78193682 2.5510001
1.2530186 -0.78489035 2.5510001
1.2639465 -0.78370887 2.5510004
1.2692628 -0.77529144 2.5510001
1.2515419 -0.76643097 2.5510001
1.2670476 -0.76643091 2.5510001
1.2471117 -0.75314021 2.5510001
1.253314 -0.75446934 2.5510004
1.2626175 -0.75978559 2.5510001
1.2471117 -0.74427974 2.5510001
1.253757 -0.74427974 2.5510001
1.2471117 -0.73763442 2.5510001
1.2456349 -0.72729719 2.5510001
1.2515419 -0.72434372 2.5510001
1.2604023 -0.72434372 2.5510001
1.2382512 -0.71548331 2.5510001
1.2448967 -0.71548319 2.5510004
1.2515419 -0.71769834 2.5510001
1.2382512 -0.70662278 2.5510001
1.2426814 -0.70662278 2.5510001
1.2515419 -0.44302368 2.5510001
1.267786 -0.44376206 2.5510001
1.2736931 -0.44080856 2.5510001
1.267786 -0.43342483 2.5510001
1.2736931 -0.43416321 2.5510001
1.2751698 -0.42456436 2.5510001
1.2825536 -0.42530274 2.5510001
1.2471117 -0.41422713 2.5510001
1.2515419 -0.41644228 2.5510001
1.2781233 -0.41644228 2.5510001
1.2825536 -0.41644228 2.5510001
1.2471117 -0.40758178 2.5510001
1.2515419 -0.40758178 2.5510001
1.2770157 -0.40536666 2.5510001
1.2825536 -0.40536666 2.5510001
1.2825536 -0.3854306 2.5510001
1.2781233 -0.37878525 2.5510001
1.2825536 -0.37657014 2.5510001
1.2781233 -0.36549455 2.5510001
1.2825536 -0.36992478 2.5510001
1.2781233 -0.35663405 2.5510001
1.2736931 -0.34334335 2.5510001
1.3490071 -0.28353515 2.5510001
1.3534373 -0.27245957 2.5510001
1.3268559 -0.16391876 2.5510001
1.3822339 -0.07531403 2.5510001
1.3800187 -0.066453554 2.5510001
1.384449 0.068668671 2.5510001
1.384449 0.07531403 2.5510001
1.3874025 0.083436131 2.5510001
1.3874025 0.09377335 2.5510001
1.2541686 -0.78329748 2.5700002
1.2653267 -0.78441334 2.5700002
1.2742531 -0.78329748 2.5700002
1.2474737 -0.77660263 2.5700002
1.2541686 -0.77660263 2.5700002
1.2662194 -0.77704901 2.5700002
1.2742531 -0.77883422 2.5700002
1.2474737 -0.76098132 2.5700002
1.2537223 -0.76633716 2.5700002
1.2668145 -0.76841998 2.5700002
1.2474737 -0.75651807 2.5700002
1.251937 -0.75428641 2.5700002
1.2474737 -0.74536002 2.5700002
1.251937 -0.74536002 2.5700002
1.2385473 -0.73643351 2.5700002
1.2452421 -0.73643351 2.5700002
1.2541686 -0.73866516 2.5700002
1.2653267 -0.73643351 2.5700002
1.2385473 -0.72527546 2.5700002
1.2441263 -0.72639126 2.5700002
1.251937 -0.72973865 2.5700002
1.2653267 -0.72750705 2.5700002
1.2385473 -0.71411735 2.5700002
1.2430105 -0.71411735 2.5700002
1.2385473 -0.70742249 2.5700002
1.2430105 -0.70742249 2.5700002
1.2564002 -0.44632334 2.5700002
1.2675583 -0.44632334 2.5700002
1.2742531 -0.44409174 2.5700002
1.2564003 -0.43516526 2.5700002
1.2653266 -0.43516526 2.5699999
1.2757409 -0.43367752 2.5700002
1.2541686 -0.42400718 2.5700002
1.2662194 -0.4244535 2.5700002
1.2764848 -0.42400718 2.5700002
1.2831796 -0.42177555 2.5700002
1.2474737 -0.41508073 2.5700002
1.251937 -0.41508073 2.5700002
1.2675583 -0.4150807 2.5700002
1.2764847 -0.41508073 2.5700002
1.2831796 -0.41508073 2.5700002
1.2534249 -0.40541038 2.5700002
1.2662194 -0.40570793 2.5700002
1.2764847 -0.40615422 2.5700002
1.2831796 -0.40392262 2.5700002
1.2564002 -0.39945939 2.5700002
1.263095 -0.39611197 2.5700002
1.2769312 -0.39588881 2.5700002
1.2854114 -0.39499617 2.5700002
1.292106 -0.39722776 2.5700002
1.2608634 -0.38606969 2.5700002
1.2787164 -0.38383806 2.5700002
1.2846674 -0.38458192 2.5700002
1.2787164 -0.37714323 2.5700002
1.2854112 -0.37491161 2.5700002
1.2787164 -0.36598516 2.5700002
1.2846674 -0.36524129 2.5700002
1.2787164 -0.35705867 2.5700002
1.2842954 -0.35371125 2.5700002
1.2787164 -0.3459006 2.5700002
1.3345068 -0.31019473 2.5700002
1.3434333 -0.31019473 2.5700002
1.3456649 -0.30573151 2.5700002
1.3501282 -0.30349988 2.5700002
1.3523598 -0.29457343 2.5700002
1.3523598 -0.28564695 2.5700002
1.3560791 -0.27746436 2.5700002
1.3635179 -0.27002561 2.5700002
1.3679811 -0.26109916 2.5700002
1.3746759 -0.19861388 2.5700002
1.3769075 -0.17183448 2.5700002
1.3813708 -0.17183448 2.5700002
1.3367385 -0.15621316 2.5700002
1.3902972 -0.15398155 2.5700002
1.385834 -0.13166539 2.5700002
1.3836024 -0.12497054 2.5700002
1.3843464 -0.1153002 2.5700002
1.3902972 -0.11604407 2.5700002
1.3754199 -0.10191049 2.5700002
1.3836024 -0.10488599 2.5700002
1.3902973 -0.10488599 2.5700002
1.3746759 -0.093727902 2.5700002
1.3836024 -0.093727902 2.5700002
1.3902972 -0.093727902 2.5700002
1.3434333 -0.084801443 2.5700002
1.3523598 -0.082569823 2.5700002
1.3746759 -0.084801435 2.5700002
1.3836024 -0.084801443 2.5700002
1.3902972 -0.084801435 2.5700002
1.3456649 -0.075874969 2.5700002
1.3746759 -0.075874969 2.5700002
1.3836024 -0.075874969 2.5700002
1.3902972 -0.078106582 2.5700002
1.3769075 -0.069180116 2.5700002
1.3840487 -0.065609537 2.5700002
1.3925288 -0.06025365 2.5700002
1.3925288 -0.053558804 2.5700002
1.3992237 -0.044632334 2.5700002
1.3992237 -0.037937485 2.5700002
1.4036869 -0.037937485 2.5700002
1.385834 0.00669485 2.5700002
1.3958763 0.0055790418 2.5700002
1.4036869 0.00669485 2.5700002
1.385834 0.013389701 2.5700002
1.3947605 0.013389702 2.5700002
1.4036869 0.011158084 2.5700002
1.3840487 0.02544043 2.5700002
1.3947604 0.024547782 2.5699999
1.4036869 0.029011017 2.5700002
1.385834 0.035705868 2.5700002
1.3936446 0.034590058 2.5700002
1.385834 0.044632334 2.5700002
1.391785 0.045376208 2.5700002
1.385834 0.0535588 2.5700002
1.391785 0.054302674 2.5700002
1.3858341 0.06471689 2.5700002
1.3920826 0.063824236 2.5700002
1.385834 0.075874969 2.5700002
1.3902972 0.075874969 2.5700002
1.391785 0.085545316 2.5700002
1.391785 0.092984036 2.5700002
1.397736 0.10191049 2.5700002
1.4036869 0.10488599 2.5700002
1.2477039 -0.78009593 2.5890002
1.2522001 -0.78009593 2.5890002
1.2477039 -0.77110344 2.5890002
1.2544482 -0.77335161 2.5890002
1.2477039 -0.76435912 2.5890002
1.2522001 -0.76435912 2.5890002
1.2477039 -0.75536668 2.5890002
1.2536988 -0.75611609 2.5890002
1.2454557 -0.74637419 2.5890002
1.2522001 -0.7486223 2.5890002
1.2387114 -0.73063737 2.5890002
1.2432077 -0.73513365 2.5890002
1.2387114 -0.72164494 2.5890002
1.2432076 -0.72389305 2.5890002
1.2364633 -0.71714872 2.5890002
1.2432076 -0.71490061 2.5890002
1.2566963 -0.44287866 2.5890002
1.2611926 -0.44512677 2.5890002
1.2551975 -0.43538496 2.5890002
1.2611926 -0.43613434 2.5890002
1.2539986 -0.42579299 2.5890005
1.2544482 -0.41365317 2.5890002
1.2566963 -0.40690884 2.5890002
1.2611926 -0.40241259 2.5890002
1.2746812 -0.40241259 2.5890002
1.2656888 -0.39566827 2.5890002
1.2769293 -0.39566827 2.5890002
1.2836736 -0.39342013 2.5890002
1.2656888 -0.38667578 2.5890002
1.2758052 -0.3866758 2.5890002
1.2836736 -0.38667578 2.5890002
1.2656888 -0.3754352 2.5890002
1.273782 -0.37543523 2.5890005
1.2847978 -0.3754352 2.5890002
1.2746812 -0.36419466 2.5890002
1.2836736 -0.36419463 2.5890002
1.27618 -0.35595155 2.5890002
1.2851725 -0.35445282 2.5890002
1.2566963 -0.34845784 2.5890002
1.2634406 -0.34845784 2.5890002
1.2746812 -0.34845784 2.5890002
1.2836736 -0.34845784 2.5890002
1.2971624 -0.34845784 2.5890002
1.3039067 -0.34845784 2.5890002
1.3106511 -0.34845784 2.5890002
1.3376285 -0.31473613 2.5890002
1.3443727 -0.31698424 2.5890002
1.3361297 -0.30649301 2.5890002
1.3443729 -0.30574363 2.5890002
1.3526158 -0.30499429 2.5890002
1.33583 -0.29360384 2.5890005
1.3439232 -0.29540235 2.5890005
1.3533653 -0.29450309 2.5890005
1.3376285 -0.28326249 2.5890002
1.3436235 -0.28401187 2.5890002
1.3533652 -0.28326249 2.5890002
1.3646059 -0.28101438 2.5890002
1.3376285 -0.27651817 2.5890002
1.3556134 -0.27651817 2.5890002
1.3646059 -0.27501944 2.5890002
1.3735983 -0.2675257 2.5890002
1.3758464 -0.25628513 2.5890002
1.3780946 -0.24954078 2.5890002
1.3780946 -0.22256339 2.5890002
1.3780946 -0.21581905 2.5890002
1.3825908 -0.21357094 2.5890002
1.3691021 -0.20008224 2.5890002
1.3758464 -0.20457849 2.5890005
1.3848388 -0.2068266 2.5890002
1.3927073 -0.20345441 2.5890002
1.3780946 -0.19333789 2.5890002
1.3848388 -0.1933379 2.5890002
1.393082 -0.19258854 2.5890002
1.3780946 -0.18659355 2.5890002
1.3848388 -0.18434542 2.5890002
1.3938313 -0.18659355 2.5890002
1.3526158 -0.17460361 2.5890002
1.3691021 -0.17535298 2.5890002
1.375097 -0.17460361 2.5890002
1.3840895 -0.17610234 2.5890002
1.3511171 -0.16636053 2.5890002
1.3735983 -0.16860864 2.5890002
1.3915832 -0.16860864 2.5890002
1.3511171 -0.15511994 2.5890002
1.3855884 -0.15212245 2.5890002
1.3938313 -0.15062371 2.5890002
1.4005756 -0.15062371 2.5890002
1.387087 -0.14387935 2.5890002
1.3938313 -0.14612748 2.5890002
1.4005756 -0.14612748 2.5890002
1.3848388 -0.13488691 2.5890002
1.393082 -0.13563627 2.5890002
1.3780946 -0.12589444 2.5890002
1.3848388 -0.12589446 2.5890002
1.3556134 -0.11690199 2.5890002
1.3780946 -0.11465387 2.5890002
1.3848389 -0.11465388 2.5890005
1.3915832 -0.1191501 2.5890002
1.3556134 -0.10116518 2.5890002
1.3601096 -0.10116518 2.5890002
1.3780946 -0.1034133 2.5890002
1.3825908 -0.10566141 2.5890002
1.3533652 -0.094420835 2.5890002
1.3646059 -0.094420843 2.5890005
1.3758464 -0.094420835 2.5890002
1.3657299 -0.086552426 2.5890002
1.3758464 -0.085428372 2.5890002
1.3646059 -0.076435916 2.5890005
1.3758464 -0.076435916 2.5890002
1.3646059 -0.067443453 2.5890005
1.3758464 -0.067443453 2.5890002
1.3843893 -0.064296089 2.5890005
1.3915832 -0.060699105 2.5890002
1.387087 -0.056202877 2.5890002
1.3938314 -0.053954761 2.5890002
1.3945807 -0.045711678 2.5890002
1.4028239 -0.044962302 2.5890002
1.4041728 -0.035520218 2.5890005
1.4050719 -0.024729265 2.5890005
1.4059713 -0.013938314 2.5890005
1.4140644 -0.01348869 2.5890002
1.3960794 -0.0022481151 2.5890002
1.405072 -0.0044962307 2.5890005
1.4140644 -0.0022481151 2.5890002
1.393082 0.0037468586 2.5890002
1.4028238 0.0022481151 2.5890002
1.387087 0.015736805 2.5890002
1.3915832 0.01348869 2.5890002
1.3780946 0.026977381 2.5890002
1.3848388 0.024729267 2.5890005
1.3915832 0.020233035 2.5890002
1.3758464 0.035969842 2.5890002
1.3848388 0.035969842 2.5890002
1.3915832 0.035969839 2.5890002
1.40732 0.038217954 2.5890002
1.3765959 0.045711678 2.5890002
1.3848388 0.044962302 2.5890002
1.3915832 0.044962302 2.5890002
1.405072 0.042714186 2.5890002
1.3765959 0.053205393 2.5890002
1.3848389 0.053954761 2.5890002
1.3915832 0.053954761 2.5890002
1.405072 0.051706646 2.5890002
1.3870871 0.065195337 2.5890002
1.3915832 0.065195337 2.5890002
1.3915832 0.076435909 2.5890002
1.3938313 0.085428372 2.5890002
1.3938313 0.094420835 2.5890002
1.3960794 0.10116518 2.5890002
1.4020746 0.10416266 2.5890002
1.3848388 0.11465387 2.5890002
1.3933817 0.11555312 2.5890005
1.4044297 0.11336924 2.5890005
1.4140644 0.11015764 2.5890002
1.393082 0.12664382 2.5890002
1.3780946 0.13713501 2.5890002
1.387087 0.13488689 2.5890002
1.3938313 0.13488691 2.5890002
1.4005756 0.13488689 2.5890002
1.3758464 0.14387935 2.5890002
1.3855882 0.14312999 2.5890002
1.3938314 0.14387935 2.5890002
1.4050721 0.14342974 2.5890005
1.366854 0.15961617 2.5890002
1.3758466 0.15511996 2.5890005
1.3852885 0.1560192 2.5890005
1.3949554 0.15399589 2.5890002
1.4005756 0.15511994 2.5890002
1.3691021 0.16860864 2.5890002
1.3758464 0.16636051 2.5890002
1.3848388 0.16636053 2.5890002
1.3960794 0.16860864 2.5890002
1.3691021 0.17310487 2.5890002
1.3765959 0.17460361 2.5890002
1.3840895 0.17460361 2.5890002
1.4005756 0.17760108 2.5890002
1.3780946 0.18209732 2.5890002
1.2573423 -0.78159118 2.6090002
1.2528114 -0.7747947 2.6090002
1.2482804 -0.76799828 2.6090002
1.2528114 -0.76573282 2.6090002
1.2482804 -0.75440544 2.6090002
1.2528114 -0.75667095 2.6090002
1.2392185 -0.74081254 2.6090002
1.2460151 -0.74534357 2.6090002
1.2392185 -0.73628157 2.6090002
1.2452598 -0.73326099 2.6090002
1.2437495 -0.72721964 2.6090002
1.2482804 -0.71815771 2.6090002
1.2301565 -0.47348568 2.6090002
1.2324221 -0.46668923 2.6090002
1.2346876 -0.45536184 2.6090002
1.2618734 -0.44403443 2.6090002
1.2573423 -0.43497249 2.6090002
1.2573423 -0.42817605 2.6090002
1.2664043 -0.40552124 2.6090002
1.2709353 -0.40099028 2.6090002
1.2709353 -0.39645931 2.6090002
1.2709353 -0.38286641 2.6090002
1.2845281 -0.3851319 2.6090002
1.2709353 -0.37606996 2.6090002
1.2860386 -0.37682515 2.6090002
1.2736539 -0.36564872 2.6090002
1.2845281 -0.36474258 2.6090002
1.2777317 -0.35568064 2.6090002
1.2845281 -0.35341516 2.6090002
1.3388997 -0.31037101 2.6090002
1.3434306 -0.31490195 2.6090002
1.3388997 -0.30357456 2.6090002
1.3434306 -0.30357456 2.6090002
1.3570236 -0.29224715 2.6090002
1.3570236 -0.28318521 2.6090002
1.3479617 -0.27412328 2.6090002
1.354758 -0.27865425 2.6090002
1.363065 -0.27563363 2.6090002
1.3728819 -0.27412328 2.6090002
1.3796785 -0.26506138 2.6090002
1.3842094 -0.26506135 2.6090002
1.3796784 -0.25373396 2.6090002
1.3842094 -0.25146848 2.6090002
1.3796784 -0.24467203 2.6090002
1.3857197 -0.24542719 2.6090002
1.3479617 -0.2356101 2.6090002
1.354003 -0.23485494 2.6090002
1.3638201 -0.23334461 2.6090002
1.3781681 -0.23485494 2.6090002
1.3864748 -0.2356101 2.6090002
1.3570236 -0.22654817 2.6090002
1.3645753 -0.22730333 2.6090002
1.3751473 -0.22654818 2.6090002
1.3857197 -0.22730333 2.6090002
1.3766577 -0.21446562 2.6090002
1.3842094 -0.21748625 2.6090002
1.3751476 -0.20615885 2.6090002
1.3796784 -0.19483143 2.6090002
1.3842094 -0.19483143 2.6090002
1.3660855 -0.18350402 2.6090002
1.3796784 -0.1857695 2.6090002
1.3857197 -0.18501434 2.6090002
1.4045987 -0.18350402 2.6090002
1.3660855 -0.17897306 2.6090002
1.3736372 -0.17595242 2.6090002
1.3887403 -0.17897306 2.6090002
1.4045987 -0.17897306 2.6090002
1.3660855 -0.16538016 2.6090002
1.3757946 -0.16408561 2.6090002
1.386928 -0.16447398 2.6090002
1.3955368 -0.16538018 2.6090002
1.4023331 -0.1608492 2.6090002
1.3660855 -0.15405276 2.6090002
1.3751476 -0.15405276 2.6090002
1.3864748 -0.15405276 2.6090002
1.3932712 -0.15631823 2.6090002
1.4023331 -0.15631823 2.6090002
1.3638201 -0.14499083 2.6090002
1.3751473 -0.14499083 2.6090002
1.3864748 -0.14499083 2.6090002
1.3932712 -0.14499083 2.6090002
1.4045987 -0.14272535 2.6090002
1.3645753 -0.13668406 2.6090002
1.3751476 -0.1359289 2.6090002
1.3864748 -0.1359289 2.6090002
1.3660855 -0.12686698 2.6090002
1.3751475 -0.1246015 2.6090004
1.3842094 -0.12460151 2.6090002
1.3660855 -0.11100861 2.6090002
1.3751473 -0.11327409 2.6090002
1.3842094 -0.11327409 2.6090002
1.3660855 -0.10647764 2.6090002
1.3760536 -0.10466526 2.6090002
1.3842094 -0.10421216 2.6090002
1.3751473 -0.061168008 2.6090002
1.3864748 -0.061168008 2.6090002
1.3751473 -0.056637045 2.6090002
1.3872299 -0.055126723 2.6090002
1.3947815 -0.053616401 2.6090002
1.396292 -0.046064794 2.6090002
1.4023331 -0.043044154 2.6090002
1.3978022 -0.038513191 2.6090002
1.4053539 -0.037002869 2.6090002
1.3978022 -0.0249203 2.6090002
1.4045987 -0.0249203 2.6090002
1.396292 -0.014348052 2.6090002
1.4053539 -0.014348052 2.6090002
1.4113951 -0.011327408 2.6090002
1.3955367 -0.0045309635 2.6090002
1.4038436 -0.0052861245 2.6090002
1.3887403 0.0067964452 2.6090002
1.3955368 0.0045309635 2.6090002
1.3887403 0.01359289 2.6090002
1.3947815 0.01283773 2.6090002
1.3796784 0.029451262 2.6090002
1.3853421 0.023787558 2.6090002
1.3774129 0.036247708 2.6090002
1.3751476 0.047575116 2.6090002
1.3842094 0.043044154 2.6090002
1.3766578 0.055126723 2.6090002
1.3842094 0.056637045 2.6090002
1.3706164 0.061168008 2.6090002
1.3887403 0.063433491 2.6090002
1.3932712 0.063433491 2.6090002
1.3887403 0.074760899 2.6090002
1.3950837 0.075667091 2.6090002
1.3887403 0.086088307 2.6090002
1.3955367 0.086088307 2.6090002
1.3887403 0.095150232 2.6090002
1.3955367 0.095150232 2.6090002
1.3947815 0.103457 2.6090002
1.4038436 0.10496733 2.6090002
1.3887403 0.11327409 2.6090002
1.3955367 0.11100861 2.6090002
1.4068642 0.11100861 2.6090002
1.3887403 0.12460151 2.6090002
1.3955368 0.1246015 2.6090002
1.4068642 0.1246015 2.6090002
1.4141136 0.1255077 2.6090002
1.420457 0.12913246 2.6090002
1.3857197 0.13517374 2.6090002
1.3932712 0.1359289 2.6090002
1.4159261 0.1359289 2.6090002
1.420457 0.13819438 2.6090002
1.3762802 0.14612357 2.6090002
1.3932712 0.14725631 2.6090002
1.4159261 0.14725631 2.6090002
1.3774129 0.15405276 2.6090002
1.3932712 0.15178728 2.6090002
1.4023331 0.15631823 2.6090002
1.4159261 0.15405276 2.6090002
1.4227226 0.15405276 2.6090002
1.3796784 0.16538016 2.6090002
1.4034659 0.16538016 2.6090002
1.4141136 0.16628636 2.6090002
1.420457 0.1608492 2.6090002
1.3978022 0.17897306 2.6090002
1.4045987 0.17670758 2.6090002
1.4136605 0.1744421 2.6090002
1.3955367 0.18350402 2.6090002
1.2624152 -0.79214841 2.6290002
1.2456744 -0.78453892 2.6290002
1.2563276 -0.78453892 2.6290002
1.2624152 -0.7875827 2.6290002
1.2395867 -0.77388561 2.6290002
1.2464352 -0.77616847 2.6290002
1.2548057 -0.77692938 2.6290002
1.2377604 -0.76566738 2.6290002
1.2464352 -0.76475424 2.6290002
1.25511 -0.76566738 2.6290002
1.2395867 -0.75334001 2.6290002
1.2464352 -0.75334001 2.6290002
1.2395867 -0.74420857 2.6290002
1.2441524 -0.74420857 2.6290002
1.2395867 -0.7350772 2.6290002
1.2464352 -0.7350772 2.6290002
1.248718 -0.72822863 2.6290002
1.2532837 -0.72366297 2.6290002
1.2373039 -0.48168102 2.6290002
1.2258896 -0.4771153 2.6290002
1.2327381 -0.47483245 2.6290002
1.2441524 -0.4771153 2.6290002
1.2365429 -0.46494013 2.6290002
1.2441524 -0.46341822 2.6290002
1.2395867 -0.45885253 2.6290002
1.2464352 -0.45656967 2.6290002
1.2563276 -0.45733064 2.6290002
1.2624152 -0.45428684 2.6290002
1.2578495 -0.44515544 2.6290002
1.2642415 -0.44606858 2.6290002
1.2578495 -0.43374121 2.6290002
1.2669809 -0.42232695 2.6290002
1.2654591 -0.41623935 2.6290002
1.2715466 -0.41547841 2.6290002
1.2669809 -0.40406418 2.6290002
1.2730685 -0.40558609 2.6290002
1.2651547 -0.3940196 2.6290002
1.2738295 -0.39493275 2.6290002
1.2806779 -0.39264995 2.6290002
1.2669809 -0.38351852 2.6290002
1.2738295 -0.38351852 2.6290002
1.2669809 -0.37438715 2.6290002
1.2738295 -0.37438715 2.6290002
1.248718 -0.36297289 2.6290002
1.2555666 -0.36297289 2.6290002
1.264698 -0.36525574 2.6290002
1.2738295 -0.36525574 2.6290002
1.2806779 -0.36297289 2.6290002
1.2555666 -0.3584072 2.6290002
1.2624152 -0.3584072 2.6290002
1.2738295 -0.3584072 2.6290002
1.2806779 -0.3584072 2.6290002
1.3643825 -0.27470276 2.6290002
1.3742747 -0.27165896 2.6290002
1.3834062 -0.27165896 2.6290002
1.3628604 -0.26481041 2.6290002
1.3742747 -0.26481041 2.6290002
1.3834062 -0.26481041 2.6290002
1.3742747 -0.25567901 2.6290002
1.3834062 -0.25567901 2.6290002
1.3582948 -0.24426478 2.6290002
1.3628604 -0.24426478 2.6290002
1.3750356 -0.2457867 2.6290002
1.3834062 -0.24654764 2.6290002
1.399386 -0.24426478 2.6290002
1.3582948 -0.23056769 2.6290002
1.3651433 -0.23513338 2.6290002
1.3742747 -0.23969908 2.6290002
1.3826454 -0.23817718 2.6290002
1.3651433 -0.22143629 2.6290002
1.3742747 -0.22371915 2.6290002
1.3834062 -0.22143629 2.6290002
1.3765576 -0.21458775 2.6290002
1.3811233 -0.21230491 2.6290002
1.3765576 -0.20545635 2.6290002
1.3834062 -0.2031735 2.6290002
1.3765576 -0.19632497 2.6290002
1.3834062 -0.19632496 2.6290002
1.3742747 -0.18947642 2.6290002
1.3829497 -0.18582386 2.6290002
1.3834062 -0.17121363 2.6290002
1.4176489 -0.17349648 2.6290002
1.4161271 -0.16512603 2.6290002
1.4222145 -0.16208224 2.6290002
1.4176489 -0.15751654 2.6290002
1.3925375 -0.052505512 2.6290002
1.399386 -0.045656968 2.6290002
1.4039518 -0.043374121 2.6290002
1.3978642 -0.037286527 2.6290002
1.4054737 -0.035764627 2.6290002
1.4130832 -0.034242727 2.6290002
1.3993862 -0.025111333 2.6290002
1.4039519 -0.025111333 2.6290002
1.3978642 -0.01445804 2.6290002
1.4039518 -0.011414242 2.6290002
1.4130832 -0.011414242 2.6290002
1.399386 -0.0045656967 2.6290002
1.3834062 0.0045656967 2.6290002
1.3948203 0.0045656967 2.6290002
1.385689 0.011414242 2.6290002
1.3925375 0.01369709 2.6290002
1.3841671 0.026633233 2.6290002
1.3902546 0.022828484 2.6290002
1.3834062 0.043374121 2.6290002
1.3902546 0.043374121 2.6290002
1.3841671 0.054027408 2.6290002
1.3841671 0.06468071 2.6290002
1.3925375 0.063919753 2.6290002
1.3834062 0.075333998 2.6290002
1.3925375 0.075333998 2.6290002
1.385689 0.086748242 2.6290002
1.3925375 0.086748242 2.6290002
1.385689 0.095879629 2.6290002
1.3925375 0.095879629 2.6290002
1.385689 0.10272818 2.6290002
1.399386 0.10501102 2.6290002
1.4085175 0.10729387 2.6290002
1.3948203 0.11642527 2.6290002
1.3932985 0.12403476 2.6290002
1.3834062 0.13697091 2.6290002
1.391396 0.13354662 2.6290002
1.3834062 0.14381945 2.6290002
1.2582177 -0.79357421 2.6490002
1.2628181 -0.79357421 2.6490002
1.2490168 -0.78437334 2.6490002
1.2375157 -0.77057207 2.6490002
1.2361357 -0.76413149 2.6490002
1.2444164 -0.7636714 2.6490002
1.2375157 -0.75447047 2.6490002
1.2444164 -0.75447053 2.6490002
1.239816 -0.74526966 2.6490002
1.2444164 -0.74526966 2.6490002
1.239816 -0.73836905 2.6490002
1.2444164 -0.73836905 2.6490002
1.2536172 -0.73376858 2.6490002
1.2582177 -0.72916818 2.6490002
1.2467165 -0.64175999 2.6490002
1.2582177 -0.63255912 2.6490002
1.239816 -0.62795871 2.6490002
1.2474833 -0.62642527 2.6490002
1.2559174 -0.62565851 2.6490002
1.2651184 -0.62565851 2.6490002
1.239816 -0.61645764 2.6490002
1.2467165 -0.61645764 2.6490002
1.2551507 -0.6172244 2.6490002
1.2628181 -0.61875784 2.6490002
1.239816 -0.60955697 2.6490002
1.2467166 -0.60495657 2.6490002
1.2559174 -0.60725677 2.6490002
1.2444164 -0.5957557 2.6490002
1.2467165 -0.51294798 2.6490002
1.2490168 -0.50604731 2.6490002
1.239816 -0.49454623 2.6490002
1.2474833 -0.49607968 2.6490002
1.2260146 -0.48074496 2.6490002
1.2345583 -0.48665982 2.6490002
1.2467165 -0.4899458 2.6490002
1.2559174 -0.48304516 2.6490002
1.2342955 -0.47338423 2.6490002
1.2582177 -0.47614452 2.6490002
1.2382826 -0.46541017 2.6490002
1.2444164 -0.46234322 2.6490002
1.239816 -0.45774281 2.6490002
1.2467165 -0.45544261 2.6490002
1.2566842 -0.45467588 2.6490002
1.2628181 -0.45544261 2.6490002
1.239816 -0.4439415 2.6490002
1.2490168 -0.44624174 2.6490002
1.2559174 -0.44624171 2.6490002
1.2643516 -0.44700846 2.6490002
1.2444164 -0.43934107 2.6490002
1.2559174 -0.43589076 2.6490002
1.2643516 -0.43474066 2.6490002
1.273169 -0.43359056 2.6490002
1.2490168 -0.42553979 2.6490002
1.2566842 -0.42400631 2.6490002
1.2651184 -0.42323956 2.6490002
1.2720189 -0.42553979 2.6490002
1.2582177 -0.41633892 2.6490002
1.2651184 -0.41403872 2.6490002
1.2735524 -0.41327199 2.6490002
1.2467165 -0.40253764 2.6490002
1.2559174 -0.40483788 2.6490002
1.2651184 -0.40483788 2.6490002
1.2720189 -0.40483785 2.6490002
1.2474833 -0.39640373 2.6490002
1.2559174 -0.39563698 2.6490002
1.2651184 -0.39563698 2.6490002
1.2490168 -0.38873634 2.6490002
1.2566842 -0.38720286 2.6490002
1.2651184 -0.3864361 2.6490002
1.2720189 -0.3864361 2.6490002
1.2490168 -0.37493506 2.6490002
1.2559175 -0.37493503 2.6490002
1.2651184 -0.37493509 2.6490002
1.2720189 -0.37723529 2.6490002
1.2766193 -0.36113375 2.6490002
1.3778288 -0.2737256 2.6490002
1.3778288 -0.26682496 2.6490002
1.3686279 -0.25302368 2.6490002
1.3755287 -0.25532389 2.6490002
1.3824292 -0.25072345 2.6490002
