# .PCD v0.7 - Point Cloud Data file format
VERSION 0.7
FIELDS x y z
SIZE 4 4 4
TYPE F F F
COUNT 1 1 1
WIDTH 1291
HEIGHT 1
VIEWPOINT 0 0 0 1 0 0 0
POINTS 1291
DATA ascii
-0.016930506 0.043730244 0.038043633
-0.018674921 0.042146698 0.039788049
-0.01775546 0.042907171 0.039788049
-0.016930506 0.043578885 0.039788049
-0.015882444 0.04465159 0.036299214
-0.015750054 0.04465159 0.038043633
-0.01518609 0.045139588 0.036299214
-0.013441674 0.046212636 0.036299214
-0.01518609 0.045063965 0.038043633
-0.013441674 0.046204105 0.038043633
-0.013110794 0.046396002 0.036299214
-0.011697259 0.047140427 0.036299214
-0.0099528432 0.047939889 0.036299214
-0.013113827 0.046396002 0.038043633
-0.011697259 0.047166996 0.038043633
-0.0099528432 0.047965616 0.038043633
-0.01556281 0.04465159 0.039788049
-0.01518609 0.044932254 0.039788049
-0.013441674 0.046118386 0.039788049
-0.012985088 0.046396002 0.039788049
-0.011697259 0.047123715 0.039788049
-0.0099528432 0.047961712 0.039788049
-0.0088710375 0.048140422 0.029321551
-0.0090260953 0.048140422 0.031065967
-0.009223938 0.048140422 0.032810383
-0.0093654208 0.048140422 0.034554798
-0.0082084239 0.04838682 0.029321551
-0.0064640082 0.04891821 0.029321551
-0.0082084239 0.048437566 0.031065967
-0.0064640082 0.048930362 0.031065967
-0.0047195926 0.049287744 0.029321551
-0.002975177 0.049531385 0.029321551
-0.0047195926 0.049257599 0.031065967
-0.002975177 0.049488589 0.031065967
-0.0082084239 0.04850705 0.032810383
-0.0064640082 0.048980087 0.032810383
-0.0082084239 0.048546143 0.034554798
-0.0064640082 0.049011603 0.034554798
-0.0047195926 0.049289003 0.032810383
-0.002975177 0.049522549 0.032810383
-0.0047195926 0.049340427 0.034554798
-0.002975177 0.049607724 0.034554798
-0.0012307614 0.049689561 0.029321551
0.00051365793 0.049792983 0.029321551
-0.0012307614 0.049680345 0.031065967
0.00051365793 0.049825475 0.031065967
0.0022580735 0.049860358 0.029321551
0.0022580735 0.049884833 0.028158132
0.0017670318 0.049884833 0.031065967
0.0022580735 0.049884833 0.030733719
0.0039797425 0.049884833 0.031065967
0.0022580735 0.049896426 0.031065967
-0.0012307614 0.049747363 0.032810383
6.691739e-05 0.049884833 0.032810383
0.00051365793 0.049884833 0.032291073
0.00051365793 0.04991848 0.032810383
-0.0012307614 0.049864031 0.034554798
-0.0010830797 0.049884833 0.034554798
0.00051365793 0.050044462 0.034554798
0.0022580735 0.04997132 0.032810383
0.0022580735 0.050068304 0.034554798
-0.0094359592 0.048140422 0.036299214
-0.0094990246 0.048140422 0.038043633
-0.0095149241 0.048140422 0.039788049
-0.0082084239 0.048550367 0.036299214
-0.0064640082 0.049002886 0.036299214
-0.0082084239 0.048569664 0.038043633
-0.0064640082 0.049016863 0.038043633
-0.0047195926 0.049355529 0.036299214
-0.002975177 0.049667671 0.036299214
-0.0047195926 0.049364604 0.038043633
-0.002975177 0.049687617 0.038043633
-0.0082084239 0.048604064 0.039788049
-0.0064640082 0.049073823 0.039788049
-0.0047195926 0.049409345 0.039788049
-0.002975177 0.049718216 0.039788049
-0.0017063059 0.049884833 0.036299214
-0.0012307614 0.049884833 0.034860972
-0.0012307614 0.049962454 0.036299214
0.00051365793 0.050163269 0.036299214
-0.0019287318 0.049884833 0.038043633
-0.0012307614 0.050013907 0.038043633
0.00051365793 0.050254606 0.038043633
0.0022580735 0.050181195 0.036299214
0.0022580735 0.05030743 0.038043633
-0.0021183901 0.049884833 0.039788049
-0.0012307614 0.050063059 0.039788049
0.00051365793 0.050353646 0.039788049
0.0022580735 0.050472394 0.039788049
-0.032630254 0.01499651 0.042676307
-0.032619826 0.01499651 0.04327688
-0.032474793 0.016740926 0.04327688
-0.032630254 0.014307957 0.045021296
-0.032600179 0.01499651 0.045021296
-0.032414515 0.016740926 0.045021296
-0.032179482 0.018485345 0.04327688
-0.031717755 0.020229757 0.04327688
-0.032085355 0.018485345 0.045021296
-0.031599954 0.020229757 0.045021296
-0.032533526 0.01499651 0.046765715
-0.032339573 0.016740926 0.046765715
-0.032437943 0.01499651 0.048510127
-0.032282695 0.016740926 0.048510127
-0.032005899 0.018485345 0.046765715
-0.03152496 0.020229757 0.046765715
-0.031951763 0.018485345 0.048510127
-0.031477936 0.020229757 0.048510127
-0.031084109 0.021974176 0.04327688
-0.030885838 0.022465385 0.04327688
-0.030953664 0.021974176 0.045021296
-0.030885838 0.022140972 0.045021296
-0.030906163 0.021974176 0.046765715
-0.030885838 0.022026636 0.046765715
-0.030915061 0.021974176 0.048510127
-0.030885838 0.022059061 0.048510127
-0.030381462 0.023718596 0.04327688
-0.030255666 0.023718596 0.045021296
-0.029716749 0.025463007 0.04327688
-0.02914142 0.027121738 0.04327688
-0.02914142 0.027207427 0.042720731
-0.029112889 0.027207427 0.04327688
-0.029624462 0.025463007 0.045021296
-0.02914142 0.026951507 0.045021296
-0.029060809 0.027207427 0.045021296
-0.030236738 0.023718596 0.046765715
-0.030307448 0.023718596 0.048510127
-0.029624842 0.025463007 0.046765715
-0.02914142 0.026938327 0.046765715
-0.029052434 0.027207427 0.046765715
-0.029712426 0.025463007 0.048510127
-0.02914142 0.027078472 0.048510127
-0.029093115 0.027207427 0.048510127
-0.032375999 0.01499651 0.050254546
-0.03226769 0.016740926 0.050254546
-0.03232915 0.01499651 0.051998965
-0.032249853 0.016740926 0.051998965
-0.03192145 0.018485345 0.050254546
-0.031443346 0.020229757 0.050254546
-0.031888537 0.018485345 0.051998965
-0.031425759 0.020229757 0.051998965
-0.032242816 0.01499651 0.053743377
-0.032167241 0.016740926 0.053743377
-0.032096878 0.01499651 0.055487797
-0.031997509 0.016740926 0.055487797
-0.031819247 0.018485345 0.053743377
-0.031421803 0.020229757 0.053743377
-0.031682238 0.018485345 0.055487797
-0.031367589 0.020229757 0.055487797
-0.030962905 0.021974176 0.050254546
-0.030885838 0.022253871 0.050254546
-0.031056866 0.021974176 0.051998965
-0.030885838 0.022812925 0.051998965
-0.031169903 0.021974176 0.053743377
-0.030885838 0.023637883 0.053743377
-0.031204781 0.021974176 0.055487797
-0.03096427 0.023718596 0.055487797
-0.030885838 0.023718596 0.053936154
-0.030885838 0.024041735 0.055487797
-0.030455133 0.023718596 0.050254546
-0.030662907 0.023718596 0.051998965
-0.029874355 0.025463007 0.050254546
-0.029179947 0.027207427 0.050254546
-0.02914142 0.027207427 0.049547583
-0.0300708 0.025463007 0.051998965
-0.029255562 0.027207427 0.051998965
-0.030866789 0.023718596 0.053743377
-0.030256959 0.025463007 0.053743377
-0.029316023 0.027207427 0.053743377
-0.030369924 0.025463007 0.055487797
-0.029389208 0.027207427 0.055487797
-0.028523829 0.028951839 0.04327688
-0.027806144 0.030696258 0.04327688
-0.028483704 0.028951839 0.045021296
-0.027732346 0.030696258 0.045021296
-0.027397005 0.031488091 0.04327688
-0.027397005 0.031308301 0.045021296
-0.026817173 0.032440677 0.04327688
-0.025652587 0.033978634 0.04327688
-0.025652587 0.034185089 0.042058568
-0.025475966 0.034185089 0.04327688
-0.026658341 0.032440677 0.045021296
-0.025652587 0.033679895 0.045021296
-0.025189983 0.034185089 0.045021296
-0.028428584 0.028951839 0.046765715
-0.027625494 0.030696258 0.046765715
-0.028384503 0.028951839 0.048510127
-0.027529223 0.030696258 0.048510127
-0.027397005 0.031100869 0.046765715
-0.027397005 0.030930251 0.048510127
-0.026493177 0.032440677 0.046765715
-0.025652587 0.033431605 0.046765715
-0.024930064 0.034185089 0.046765715
-0.026385399 0.032440677 0.048510127
-0.025652587 0.033296391 0.048510127
-0.024778511 0.034185089 0.048510127
-0.023924181 0.035929509 0.04327688
-0.023908172 0.035947442 0.04327688
-0.023908172 0.0355459 0.045021296
-0.023908172 0.035929509 0.043349169
-0.023908172 0.035228439 0.046765715
-0.023908172 0.035042994 0.048510127
-0.02914142 0.027295321 0.050254546
-0.028372953 0.028951839 0.050254546
-0.027467689 0.030696258 0.050254546
-0.02914142 0.027424254 0.051998965
-0.028313018 0.028951839 0.051998965
-0.027397005 0.030606449 0.051998965
-0.027397005 0.030696258 0.051462375
-0.027346414 0.030696258 0.051998965
-0.027397005 0.030821845 0.050254546
-0.026341872 0.032440677 0.050254546
-0.025652587 0.033262879 0.050254546
-0.024750356 0.034185089 0.050254546
-0.026248561 0.032440677 0.051998965
-0.025652587 0.033198059 0.051998965
-0.024742214 0.034185089 0.051998965
-0.02914142 0.027486466 0.053743377
-0.028205659 0.028951839 0.053743377
-0.027397005 0.030281305 0.053743377
-0.02914142 0.027574949 0.055487797
-0.028168056 0.028951839 0.055487797
-0.027397005 0.030101374 0.055487797
-0.027156081 0.030696258 0.053743377
-0.027032752 0.030696258 0.055487797
-0.026107583 0.032440677 0.053743377
-0.025652587 0.033092201 0.053743377
-0.024744989 0.034185089 0.053743377
-0.026020473 0.032440677 0.055487797
-0.025652587 0.033023529 0.055487797
-0.024772307 0.034185089 0.055487797
-0.023908172 0.03500101 0.050254546
-0.023908172 0.035017096 0.051998965
-0.023908172 0.035065077 0.053743377
-0.023908172 0.035141483 0.055487797
-0.03190507 0.01499651 0.057232209
-0.031768613 0.016740926 0.057232209
-0.031705014 0.01499651 0.058976628
-0.031532358 0.016740926 0.058976628
-0.031477198 0.018485345 0.057232209
-0.031212809 0.020229757 0.057232209
-0.031257115 0.018485345 0.058976628
-0.031019639 0.020229757 0.058976628
-0.031536061 0.01499651 0.060721047
-0.031340405 0.016740926 0.060721047
-0.031448111 0.01499651 0.062465459
-0.031254634 0.016740926 0.062465459
-0.03108394 0.018485345 0.060721047
-0.030885838 0.020028673 0.060721047
-0.030885838 0.020229757 0.060442314
-0.031012718 0.018485345 0.062465459
-0.030885838 0.019418433 0.062465459
-0.03086492 0.020229757 0.060721047
-0.0307824 0.020229757 0.062465459
-0.031091245 0.021974176 0.057232209
-0.030893216 0.023718596 0.057232209
-0.030902067 0.021974176 0.058976628
-0.030885838 0.022277169 0.058976628
-0.030885838 0.023718596 0.057313882
-0.030885838 0.023755975 0.057232209
-0.030885838 0.021974176 0.059126578
-0.030721629 0.023718596 0.058976628
-0.030353244 0.025463007 0.057232209
-0.029429805 0.027207427 0.057232209
-0.030251224 0.025463007 0.058976628
-0.029419823 0.027207427 0.058976628
-0.030729968 0.021974176 0.060721047
-0.030550389 0.023718596 0.060721047
-0.030595092 0.021974176 0.062465459
-0.030392189 0.023718596 0.062465459
-0.030139517 0.025463007 0.060721047
-0.029386437 0.027207427 0.060721047
-0.030016821 0.025463007 0.062465459
-0.0293251 0.027207427 0.062465459
-0.031492062 0.01499651 0.064209878
-0.031321671 0.016740926 0.064209878
-0.031637181 0.01499651 0.06595429
-0.031490169 0.016740926 0.06595429
-0.031096522 0.018485345 0.064209878
-0.030885838 0.01985883 0.064209878
-0.031291768 0.018485345 0.06595429
-0.030993586 0.020229757 0.06595429
-0.030885838 0.020229757 0.064961053
-0.031789232 0.01499651 0.06769871
-0.031652216 0.016740926 0.06769871
-0.031926453 0.01499651 0.069443122
-0.031805307 0.016740926 0.069443122
-0.031451836 0.018485345 0.06769871
-0.031142307 0.020229757 0.06769871
-0.031563334 0.018485345 0.069443122
-0.031196564 0.020229757 0.069443122
-0.030822841 0.020229757 0.064209878
-0.030885838 0.020715661 0.06595429
-0.030885838 0.021268919 0.06769871
-0.030885838 0.021400228 0.069443122
-0.030532116 0.021974176 0.064209878
-0.030253585 0.023718596 0.064209878
-0.030592339 0.021974176 0.06595429
-0.03019115 0.023718596 0.06595429
-0.029871428 0.025463007 0.064209878
-0.029224634 0.027207427 0.064209878
-0.029742038 0.025463007 0.06595429
-0.02914142 0.027155049 0.06595429
-0.02914142 0.027207427 0.065536089
-0.029119154 0.027207427 0.06595429
-0.030692844 0.021974176 0.06769871
-0.030197985 0.023718596 0.06769871
-0.030720664 0.021974176 0.069443122
-0.030198375 0.023718596 0.069443122
-0.029677475 0.025463007 0.06769871
-0.02914142 0.027035445 0.06769871
-0.02907655 0.027207427 0.06769871
-0.029652692 0.025463007 0.069443122
-0.02914142 0.027003556 0.069443122
-0.029070932 0.027207427 0.069443122
-0.02914142 0.027646884 0.057232209
-0.028205641 0.028951839 0.057232209
-0.027397005 0.030098312 0.057232209
-0.02914142 0.027661785 0.058976628
-0.028247923 0.028951839 0.058976628
-0.027397005 0.030141011 0.058976628
-0.027011227 0.030696258 0.057232209
-0.027018487 0.030696258 0.058976628
-0.02596136 0.032440677 0.057232209
-0.025652587 0.032924794 0.057232209
-0.024713241 0.034185089 0.057232209
-0.025852524 0.032440677 0.058976628
-0.025652587 0.03272339 0.058976628
-0.024517564 0.034185089 0.058976628
-0.02914142 0.027636327 0.060721047
-0.028267516 0.028951839 0.060721047
-0.027397005 0.030151151 0.060721047
-0.02914142 0.027554631 0.062465459
-0.028263133 0.028951839 0.062465459
-0.027397005 0.030130491 0.062465459
-0.027000444 0.030696258 0.060721047
-0.026955042 0.030696258 0.062465459
-0.025683038 0.032440677 0.060721047
-0.025652587 0.03247866 0.060721047
-0.024260754 0.034185089 0.060721047
-0.025652587 0.032263383 0.062465459
-0.025652587 0.032440677 0.0609999
-0.025497917 0.032440677 0.062465459
-0.02403385 0.034185089 0.062465459
-0.023908172 0.035118148 0.057232209
-0.023908172 0.034920469 0.058976628
-0.023908172 0.034624726 0.060721047
-0.023908172 0.034345254 0.062465459
-0.02914142 0.027380809 0.064209878
-0.028239282 0.028951839 0.064209878
-0.027397005 0.030122511 0.064209878
-0.028241426 0.028951839 0.06595429
-0.027397005 0.030221336 0.06595429
-0.026929198 0.030696258 0.064209878
-0.027020304 0.030696258 0.06595429
-0.025652587 0.032124631 0.064209878
-0.025359193 0.032440677 0.064209878
-0.023908172 0.034135886 0.064209878
-0.023908172 0.034185089 0.063718684
-0.025652587 0.032195278 0.06595429
-0.0254179 0.032440677 0.06595429
-0.023908172 0.034178682 0.06595429
-0.028320484 0.028951839 0.06769871
-0.027397005 0.030496202 0.06769871
-0.028410085 0.028951839 0.069443122
-0.027478024 0.030696258 0.069443122
-0.027397005 0.030696258 0.068731658
-0.027251149 0.030696258 0.06769871
-0.027397005 0.030818537 0.069443122
-0.025770942 0.032440677 0.06769871
-0.025652587 0.032440677 0.067239605
-0.025652587 0.032573171 0.06769871
-0.02429493 0.034185089 0.06769871
-0.023908172 0.034185089 0.065995492
-0.026193604 0.032440677 0.069443122
-0.025652587 0.033137284 0.069443122
-0.02484018 0.034185089 0.069443122
-0.023908172 0.034664936 0.06769871
-0.023908172 0.035300374 0.069443122
-0.022356763 0.03767392 0.04327688
-0.023554467 0.035929509 0.045021296
-0.022163756 0.037441403 0.045021296
-0.022163756 0.03767392 0.044058967
-0.021940816 0.03767392 0.045021296
-0.022163756 0.037881464 0.04327688
-0.020698898 0.03941834 0.04327688
-0.020419341 0.039703734 0.04327688
-0.020419341 0.039212793 0.045021296
-0.020419341 0.03941834 0.044230048
-0.01893042 0.041162752 0.04327688
-0.020211868 0.03941834 0.045021296
-0.018674921 0.040914394 0.045021296
-0.018674921 0.041162752 0.044059906
-0.018417381 0.041162752 0.045021296
-0.023253843 0.035929509 0.046765715
-0.022163756 0.037112735 0.046765715
-0.021626744 0.03767392 0.046765715
-0.023058439 0.035929509 0.048510127
-0.022163756 0.036898002 0.048510127
-0.021441398 0.03767392 0.048510127
-0.020419341 0.038914397 0.046765715
-0.020419341 0.038776152 0.048510127
-0.019931402 0.03941834 0.046765715
-0.018674921 0.040716104 0.046765715
-0.01824094 0.041162752 0.046765715
-0.019844182 0.03941834 0.048510127
-0.018674921 0.040759243 0.048510127
-0.018322237 0.041162752 0.048510127
-0.022979969 0.035929509 0.050254546
-0.022163756 0.03677734 0.050254546
-0.021315085 0.03767392 0.050254546
-0.022983192 0.035929509 0.051998965
-0.022163756 0.036743082 0.051998965
-0.021240758 0.03767392 0.051998965
-0.020419341 0.038658403 0.050254546
-0.020419341 0.038567357 0.051998965
-0.019776195 0.03941834 0.050254546
-0.018674921 0.040793844 0.050254546
-0.018380448 0.041162752 0.050254546
-0.019720815 0.03941834 0.051998965
-0.018674921 0.040771738 0.051998965
-0.018370315 0.041162752 0.051998965
-0.023040907 0.035929509 0.053743377
-0.022163756 0.036792003 0.053743377
-0.02127889 0.03767392 0.053743377
-0.023137903 0.035929509 0.055487797
-0.022163756 0.036916733 0.055487797
-0.021430541 0.03767392 0.055487797
-0.020419341 0.038603321 0.053743377
-0.020419341 0.038776875 0.055487797
-0.019740239 0.03941834 0.053743377
-0.018674921 0.040731281 0.053743377
-0.018316794 0.041162752 0.053743377
-0.019857917 0.03941834 0.055487797
-0.018674921 0.040737823 0.055487797
-0.018284861 0.041162752 0.055487797
-0.023166914 0.035929509 0.057232209
-0.022163756 0.037035286 0.057232209
-0.02159676 0.03767392 0.057232209
-0.023067495 0.035929509 0.058976628
-0.022163756 0.037046723 0.058976628
-0.021667635 0.03767392 0.058976628
-0.020419341 0.039015405 0.057232209
-0.020419341 0.039211005 0.058976628
-0.020061083 0.03941834 0.057232209
-0.018674921 0.04087849 0.057232209
-0.018398404 0.041162752 0.057232209
-0.020242192 0.03941834 0.058976628
-0.018674921 0.041072287 0.058976628
-0.018585328 0.041162752 0.058976628
-0.022900719 0.035929509 0.060721047
-0.022163756 0.036930904 0.060721047
-0.02162499 0.03767392 0.060721047
-0.022727279 0.035929509 0.062465459
-0.022163756 0.036716506 0.062465459
-0.02146918 0.03767392 0.062465459
-0.020419341 0.03925664 0.060721047
-0.020419341 0.039035402 0.062465459
-0.020287585 0.03941834 0.060721047
-0.018674921 0.041150764 0.060721047
-0.018662971 0.041162752 0.060721047
-0.020103246 0.03941834 0.062465459
-0.018674921 0.040970199 0.062465459
-0.018488053 0.041162752 0.062465459
-0.023869989 0.034185089 0.064209878
-0.023903141 0.034185089 0.06595429
-0.02256697 0.035929509 0.064209878
-0.022163756 0.036465384 0.064209878
-0.021189725 0.03767392 0.064209878
-0.022532586 0.035929509 0.06595429
-0.022163756 0.036366083 0.06595429
-0.020911643 0.03767392 0.06595429
-0.020419341 0.038563579 0.064209878
-0.020419341 0.038148716 0.06595429
-0.019644152 0.03941834 0.064209878
-0.018674921 0.040455945 0.064209878
-0.018020403 0.041162752 0.064209878
-0.019108325 0.03941834 0.06595429
-0.018674921 0.039854273 0.06595429
-0.017460827 0.041162752 0.06595429
-0.022822134 0.035929509 0.06769871
-0.022163756 0.036592029 0.06769871
-0.02090084 0.03767392 0.06769871
-0.023311326 0.035929509 0.069443122
-0.022163756 0.036931992 0.069443122
-0.021126011 0.03767392 0.069443122
-0.020419341 0.038056388 0.06769871
-0.020419341 0.038143151 0.069443122
-0.018771142 0.03941834 0.06769871
-0.018674921 0.039503314 0.06769871
-0.017015751 0.041162752 0.06769871
-0.018674921 0.039369024 0.069443122
-0.018674921 0.03941834 0.068619378
-0.018611718 0.03941834 0.069443122
-0.016930506 0.04098504 0.069443122
-0.016930506 0.041162752 0.068146668
-0.016767453 0.041162752 0.069443122
-0.018674921 0.041403145 0.04327688
-0.016999491 0.042907171 0.04327688
-0.016930506 0.042967685 0.04327688
-0.016930506 0.042568482 0.045021296
-0.016930506 0.042907171 0.043503344
-0.016930506 0.042465188 0.046765715
-0.016930506 0.042616621 0.048510127
-0.01518609 0.044454165 0.04327688
-0.01518609 0.04465159 0.042123955
-0.014939673 0.04465159 0.04327688
-0.016571209 0.042907171 0.045021296
-0.01518609 0.044168785 0.045021296
-0.014611922 0.04465159 0.045021296
-0.013441674 0.045741171 0.04327688
-0.013441674 0.045522936 0.045021296
-0.012393866 0.046396002 0.04327688
-0.011697259 0.046794824 0.04327688
-0.0099528432 0.047692753 0.04327688
-0.011997223 0.046396002 0.045021296
-0.011697259 0.04655505 0.045021296
-0.0099528432 0.047390804 0.045021296
-0.016472079 0.042907171 0.046765715
-0.01518609 0.044073448 0.046765715
-0.014471151 0.04465159 0.046765715
-0.016626544 0.042907171 0.048510127
-0.01518609 0.044147596 0.048510127
-0.014492553 0.04465159 0.048510127
-0.013441674 0.045364246 0.046765715
-0.013441674 0.045277968 0.048510127
-0.011697259 0.046280697 0.046765715
-0.011697259 0.046396002 0.046047349
-0.011433549 0.046396002 0.046765715
-0.0099528432 0.046987742 0.046765715
-0.011697259 0.046020292 0.048510127
-0.010551494 0.046396002 0.048510127
-0.0099528432 0.046580099 0.048510127
-0.016930506 0.042764477 0.050254546
-0.016930506 0.042799897 0.051998965
-0.016930506 0.042700037 0.053743377
-0.016930506 0.04261031 0.055487797
-0.016784657 0.042907171 0.050254546
-0.01518609 0.044237606 0.050254546
-0.014544215 0.04465159 0.050254546
-0.016824462 0.042907171 0.051998965
-0.01518609 0.044261575 0.051998965
-0.014531232 0.04465159 0.051998965
-0.013441674 0.045210905 0.050254546
-0.013441674 0.045150056 0.051998965
-0.011697259 0.045817129 0.050254546
-0.0099528432 0.046296656 0.050254546
-0.0099528432 0.046396002 0.049507581
-0.011697259 0.045711927 0.051998965
-0.0099528432 0.04620336 0.051998965
-0.016727291 0.042907171 0.053743377
-0.01518609 0.044201218 0.053743377
-0.014442019 0.04465159 0.053743377
-0.016645297 0.042907171 0.055487797
-0.01518609 0.044198819 0.055487797
-0.014514573 0.04465159 0.055487797
-0.013441674 0.045122698 0.053743377
-0.013441674 0.045226239 0.055487797
-0.011697259 0.045738764 0.053743377
-0.0099528432 0.04629039 0.053743377
-0.011697259 0.045907408 0.055487797
-0.010193214 0.046396002 0.055487797
-0.0099528432 0.046396002 0.054782718
-0.0099528432 0.046473458 0.055487797
-0.0089498498 0.048140422 0.04327688
-0.0082084239 0.048116162 0.045021296
-0.0082084239 0.048140422 0.044918947
-0.0081463754 0.048140422 0.045021296
-0.0082084239 0.047634058 0.046765715
-0.0068455115 0.048140422 0.046765715
-0.0082084239 0.047140233 0.048510127
-0.0064640082 0.047809042 0.048510127
-0.0064640082 0.048140422 0.047250547
-0.00565736 0.048140422 0.048510127
-0.0082084239 0.048438296 0.04327688
-0.0064640082 0.049010903 0.04327688
-0.0064640082 0.048736528 0.045021296
-0.0047195926 0.049405575 0.04327688
-0.002975177 0.049780525 0.04327688
-0.0047195926 0.04921189 0.045021296
-0.002975177 0.049676381 0.045021296
-0.0064640082 0.048279978 0.046765715
-0.0047195926 0.04886575 0.046765715
-0.002975177 0.049424738 0.046765715
-0.0047195926 0.048508853 0.048510127
-0.002975177 0.049149878 0.048510127
-0.0025633425 0.049884833 0.04327688
-0.0012307614 0.050254233 0.04327688
0.00051365793 0.050672911 0.04327688
-0.0023081191 0.049884833 0.045021296
-0.0012307614 0.050245814 0.045021296
0.00051365793 0.050720334 0.045021296
0.0022580735 0.050881632 0.04327688
0.0022580735 0.050911203 0.045021296
-0.001654081 0.049884833 0.046765715
-0.0012307614 0.050036848 0.046765715
0.00051365793 0.050539128 0.046765715
-0.0012307614 0.049782649 0.048510127
-0.0012307614 0.049884833 0.047720969
-0.00094278529 0.049884833 0.048510127
0.00051365793 0.050302207 0.048510127
0.0022580735 0.050719276 0.046765715
0.0022580735 0.050497234 0.048510127
-0.0095977783 0.046396002 0.050254546
-0.0082084239 0.046822168 0.050254546
-0.0064640082 0.047491424 0.050254546
-0.0093205608 0.046396002 0.051998965
-0.0082084239 0.046761572 0.051998965
-0.0064640082 0.047411896 0.051998965
-0.0049760342 0.048140422 0.050254546
-0.0047195926 0.048116282 0.051998965
-0.0047195926 0.048140422 0.051511601
-0.0046596751 0.048140422 0.051998965
-0.0096336938 0.046396002 0.053743377
-0.0082084239 0.046890922 0.053743377
-0.0064640082 0.047512941 0.053743377
-0.0082084239 0.047052525 0.055487797
-0.0064640082 0.047621399 0.055487797
-0.0047195926 0.048114456 0.053743377
-0.0046432316 0.048140422 0.053743377
-0.0047659762 0.048140422 0.055487797
-0.0047195926 0.048140422 0.054655284
-0.0047195926 0.048250079 0.050254546
-0.002975177 0.048961326 0.050254546
-0.002975177 0.048825927 0.051998965
-0.002975177 0.048735134 0.053743377
-0.0047195926 0.048154391 0.055487797
-0.002975177 0.048695847 0.055487797
-0.0012307614 0.049651712 0.050254546
-0.00060081482 0.049884833 0.050254546
0.00051365793 0.05021885 0.050254546
-0.0012307614 0.049564369 0.051998965
-0.00042624772 0.049884833 0.051998965
0.00051365793 0.050196916 0.051998965
0.0022580735 0.050463222 0.050254546
0.0022580735 0.050530009 0.051998965
-0.0012307614 0.049421676 0.053743377
6.5788627e-06 0.049884833 0.053743377
0.00051365793 0.050049528 0.053743377
-0.0012307614 0.049265608 0.055487797
0.00051365793 0.049780808 0.055487797
0.00051365793 0.049884833 0.054847874
0.0022580735 0.050443031 0.053743377
0.00093458593 0.049884833 0.055487797
0.0022580735 0.050149776 0.055487797
-0.016930506 0.042718887 0.057232209
-0.01693435 0.042907171 0.058976628
-0.016930506 0.042907171 0.058928169
-0.016930506 0.042911388 0.058976628
-0.016990982 0.042907171 0.060721047
-0.016930506 0.042972468 0.060721047
-0.016930506 0.042805694 0.062465459
-0.016930506 0.042907171 0.061754651
-0.016757108 0.042907171 0.057232209
-0.01518609 0.044385023 0.057232209
-0.014831275 0.04465159 0.057232209
-0.01518609 0.044576742 0.058976628
-0.015089303 0.04465159 0.058976628
-0.013441674 0.045476593 0.057232209
-0.013441674 0.04565049 0.058976628
-0.011697259 0.046147801 0.057232209
-0.01084207 0.046396002 0.057232209
-0.0099528432 0.046640381 0.057232209
-0.011697259 0.046295069 0.058976628
-0.011320718 0.046396002 0.058976628
-0.0099528432 0.046716489 0.058976628
-0.01518609 0.044583857 0.060721047
-0.015094407 0.04465159 0.060721047
-0.016836099 0.042907171 0.062465459
-0.01518609 0.044399664 0.062465459
-0.014824282 0.04465159 0.062465459
-0.013441674 0.045604281 0.060721047
-0.013441674 0.045398422 0.062465459
-0.011697259 0.046240933 0.060721047
-0.011132292 0.046396002 0.060721047
-0.0099528432 0.046669118 0.060721047
-0.011697259 0.046056129 0.062465459
-0.010584887 0.046396002 0.062465459
-0.0099528432 0.046562105 0.062465459
-0.016930506 0.042376027 0.064209878
-0.016930506 0.041779444 0.06595429
-0.016930506 0.041258775 0.06769871
-0.016453996 0.042907171 0.064209878
-0.01518609 0.044086717 0.064209878
-0.014376074 0.04465159 0.064209878
-0.015960492 0.042907171 0.06595429
-0.01518609 0.04367236 0.06595429
-0.01389746 0.04465159 0.06595429
-0.013441674 0.045158036 0.064209878
-0.013441674 0.044934049 0.06595429
-0.011697259 0.04589431 0.064209878
-0.010291543 0.046396002 0.064209878
-0.0099528432 0.046499863 0.064209878
-0.011697259 0.045832574 0.06595429
-0.010347869 0.046396002 0.06595429
-0.0099528432 0.046534613 0.06595429
-0.01547502 0.042907171 0.06769871
-0.01518609 0.043200806 0.06769871
-0.013511524 0.04465159 0.06769871
-0.015196256 0.042907171 0.069443122
-0.01518609 0.042917706 0.069443122
-0.013441674 0.044574894 0.069443122
-0.013441674 0.04465159 0.068181865
-0.013356555 0.04465159 0.069443122
-0.013441674 0.044706091 0.06769871
-0.011697259 0.045875937 0.06769871
-0.010718536 0.046396002 0.06769871
-0.0099528432 0.04673095 0.06769871
-0.011697259 0.046012573 0.069443122
-0.011163633 0.046396002 0.069443122
-0.0099528432 0.047106192 0.069443122
-0.0082084239 0.047113724 0.057232209
-0.0064640082 0.047599167 0.057232209
-0.0082084239 0.047077321 0.058976628
-0.0064640082 0.047486566 0.058976628
-0.0047195926 0.048112519 0.057232209
-0.0047195926 0.048140422 0.05663906
-0.0046282262 0.048140422 0.057232209
-0.0047195926 0.0479941 0.058976628
-0.0042431056 0.048140422 0.058976628
-0.0082084239 0.047001258 0.060721047
-0.0064640082 0.047379762 0.060721047
-0.0082084239 0.046923876 0.062465459
-0.0064640082 0.047280654 0.062465459
-0.0047195926 0.047871083 0.060721047
-0.0037681088 0.048140422 0.060721047
-0.0047195926 0.04774078 0.062465459
-0.0031407848 0.048140422 0.062465459
-0.002975177 0.048632875 0.057232209
-0.002975177 0.048498139 0.058976628
-0.002975177 0.04833626 0.060721047
-0.002975177 0.048176788 0.062465459
-0.0012307614 0.049113251 0.057232209
0.00051365793 0.049513869 0.057232209
-0.0012307614 0.048911445 0.058976628
0.00051365793 0.04924535 0.058976628
0.0022580735 0.049825482 0.057232209
0.0022580735 0.049884833 0.056885049
0.0026251599 0.049884833 0.057232209
0.0022580735 0.049520649 0.058976628
-0.0012307614 0.04869058 0.060721047
0.00051365793 0.048979625 0.060721047
-0.0012307614 0.048519485 0.062465459
0.00051365793 0.048816212 0.062465459
0.0022580735 0.049227528 0.060721047
0.0022580735 0.049070403 0.062465459
-0.0082084239 0.046881907 0.064209878
-0.0064640082 0.047182091 0.064209878
-0.0082084239 0.046936326 0.06595429
-0.0064640082 0.047184967 0.06595429
-0.0047195926 0.047591411 0.064209878
-0.002975177 0.048033632 0.064209878
-0.002975177 0.048140422 0.06285958
-0.0047195926 0.047545917 0.06595429
-0.002975177 0.048012987 0.06595429
-0.0082084239 0.04720819 0.06769871
-0.0064640082 0.047457449 0.06769871
-0.0082084239 0.047727667 0.069443122
-0.0064640082 0.048023671 0.069443122
-0.0047195926 0.047787055 0.06769871
-0.0033807904 0.048140422 0.06769871
-0.002975177 0.048140422 0.067103669
-0.005620569 0.048140422 0.069443122
-0.0047195926 0.048140422 0.068966053
-0.0025180876 0.048140422 0.064209878
-0.0025165342 0.048140422 0.06595429
-0.002975177 0.048259504 0.06769871
-0.0047195926 0.048300229 0.069443122
-0.002975177 0.048698828 0.069443122
-0.0012307614 0.04843092 0.064209878
0.00051365793 0.04879687 0.064209878
-0.0012307614 0.048497126 0.06595429
0.00051365793 0.048974112 0.06595429
0.0022580735 0.049117103 0.064209878
0.0022580735 0.049451657 0.06595429
0.0036239289 0.049884833 0.06595429
-0.0012307614 0.048789196 0.06769871
0.00051365793 0.049388513 0.06769871
-0.0012307614 0.049158707 0.069443122
0.00051365793 0.049750403 0.069443122
0.0017173029 0.049884833 0.06769871
0.0022580735 0.049884833 0.0671442
0.0022580735 0.050121643 0.06769871
0.00082537904 0.049884833 0.069443122
0.0022580735 0.050594375 0.069443122
-0.032054357 0.01499651 0.071187541
-0.031962022 0.016740926 0.071187541
-0.032110211 0.01499651 0.07293196
-0.032026291 0.016740926 0.07293196
-0.031665757 0.018485345 0.071187541
-0.031209327 0.020229757 0.071187541
-0.031667039 0.018485345 0.07293196
-0.031130074 0.020229757 0.07293196
-0.032021254 0.01499651 0.074676372
-0.031904794 0.016740926 0.074676372
-0.031404119 0.01499651 0.076420791
-0.031233612 0.016740926 0.076420791
-0.031462394 0.018485345 0.074676372
-0.030885838 0.020175137 0.074676372
-0.030885838 0.020229757 0.0745911
-0.030885838 0.018054571 0.076420791
-0.030885838 0.018485345 0.076206677
-0.030866908 0.020229757 0.074676372
-0.030745422 0.018485345 0.076420791
-0.030141721 0.020229757 0.076420791
-0.030885838 0.021325245 0.071187541
-0.030885838 0.020987555 0.07293196
-0.030688638 0.021974176 0.071187541
-0.030151393 0.023718596 0.071187541
-0.030573772 0.021974176 0.07293196
-0.030038854 0.023718596 0.07293196
-0.029599506 0.025463007 0.071187541
-0.02914142 0.026861422 0.071187541
-0.029026773 0.027207427 0.071187541
-0.029508369 0.025463007 0.07293196
-0.02914142 0.02661483 0.07293196
-0.028944522 0.027207427 0.07293196
-0.030298118 0.021974176 0.074676372
-0.029793415 0.023718596 0.074676372
-0.029582342 0.021974176 0.076420791
-0.02914142 0.023554556 0.076420791
-0.02914142 0.023718596 0.076352201
-0.029097147 0.023718596 0.076420791
-0.029310372 0.025463007 0.074676372
-0.02914142 0.026037753 0.074676372
-0.028752176 0.027207427 0.074676372
-0.02914142 0.025463007 0.075339876
-0.028595828 0.025463007 0.076420791
-0.02798106 0.027207427 0.076420791
-0.030885838 0.016740926 0.076849774
-0.027397005 0.016740926 0.078865685
-0.023908172 0.016740926 0.079775386
-0.027397005 0.020229757 0.07858257
-0.023908172 0.020229757 0.079738535
-0.027397005 0.023718596 0.077996589
-0.023908172 0.023718596 0.079440288
-0.027397005 0.027207427 0.077043585
-0.023908172 0.027207427 0.07889773
-0.028409151 0.028951839 0.071187541
-0.027561974 0.030696258 0.071187541
-0.028303228 0.028951839 0.07293196
-0.02745511 0.030696258 0.07293196
-0.027397005 0.030970104 0.071187541
-0.027397005 0.030797474 0.07293196
-0.026412714 0.032440677 0.071187541
-0.025652587 0.033499189 0.071187541
-0.02513352 0.034185089 0.071187541
-0.026343986 0.032440677 0.07293196
-0.025652587 0.033407472 0.07293196
-0.025042085 0.034185089 0.07293196
-0.028040333 0.028951839 0.074676372
-0.027397005 0.030205615 0.074676372
-0.027397005 0.030696258 0.07335563
-0.027397005 0.028509006 0.076420791
-0.027397005 0.028951839 0.076130696
-0.027108843 0.030696258 0.074676372
-0.027169023 0.028951839 0.076420791
-0.026121581 0.030696258 0.076420791
-0.02594238 0.032440677 0.074676372
-0.025652587 0.032838345 0.074676372
-0.02455573 0.034185089 0.074676372
-0.025652587 0.031380855 0.076420791
-0.025652587 0.032440677 0.075339347
-0.024853183 0.032440677 0.076420791
-0.023908172 0.033533931 0.076420791
-0.023908172 0.034185089 0.075774208
-0.023908172 0.035585091 0.071187541
-0.023908172 0.035420559 0.07293196
-0.023908172 0.034868427 0.074676372
-0.023908172 0.030696258 0.077968366
-0.016930506 0.020229757 0.08095061
-0.0099528432 0.020229757 0.081571288
-0.023176815 0.020229757 0.079909623
-0.022096988 0.023718596 0.079909623
-0.020419341 0.026685774 0.079909623
-0.020419341 0.027207427 0.079830319
-0.020034876 0.027207427 0.079909623
-0.020419341 0.020229757 0.080458038
-0.020419341 0.023718596 0.080262154
-0.016930506 0.023718596 0.080790445
-0.016930506 0.027207427 0.080434799
-0.0099528432 0.027207427 0.081093341
-0.023276668 0.034185089 0.076420791
-0.023553219 0.035929509 0.071187541
-0.022163756 0.037055157 0.071187541
-0.021216895 0.03767392 0.071187541
-0.023359988 0.035929509 0.07293196
-0.022163756 0.036892965 0.07293196
-0.021020846 0.03767392 0.07293196
-0.020419341 0.038160704 0.071187541
-0.020419341 0.038061798 0.07293196
-0.018674921 0.03931421 0.071187541
-0.01853852 0.03941834 0.071187541
-0.016930506 0.040927827 0.071187541
-0.018674921 0.039285868 0.07293196
-0.018509697 0.03941834 0.07293196
-0.016930506 0.040924057 0.07293196
-0.022756414 0.035929509 0.074676372
-0.022163756 0.036421023 0.074676372
-0.020542655 0.03767392 0.074676372
-0.022163756 0.03523463 0.076420791
-0.022163756 0.035929509 0.075613245
-0.021366702 0.035929509 0.076420791
-0.020419341 0.03672462 0.076420791
-0.020419341 0.03767392 0.074958079
-0.01927169 0.03767392 0.076420791
-0.020419341 0.037765242 0.074676372
-0.018674921 0.039129563 0.074676372
-0.018335767 0.03941834 0.074676372
-0.016930506 0.040718935 0.074676372
-0.018674921 0.038172483 0.076420791
-0.01719626 0.03941834 0.076420791
-0.016930506 0.039637208 0.076420791
-0.016719412 0.041162752 0.071187541
-0.016710911 0.041162752 0.07293196
-0.016470123 0.041162752 0.074676372
-0.01518609 0.040953003 0.076420791
-0.01518609 0.041162752 0.076246619
-0.014858205 0.041162752 0.076420791
-0.020419341 0.030696258 0.079137981
-0.016930506 0.03038647 0.079909623
-0.016930506 0.030696258 0.079846703
-0.020419341 0.034185089 0.078014866
-0.016930506 0.034185089 0.078971982
-0.016534023 0.030696258 0.079909623
-0.013441674 0.03260389 0.079909623
-0.013441674 0.034185089 0.079521403
-0.0099528432 0.033742949 0.079909623
-0.0099528432 0.034185089 0.079805538
-0.013441674 0.027207427 0.080837473
-0.013441674 0.030696258 0.08030872
-0.0099528432 0.030696258 0.08054895
-0.016930506 0.03767392 0.077692561
-0.013441674 0.03767392 0.078481458
-0.0099528432 0.03767392 0.078811333
-0.013441674 0.041162752 0.076905914
-0.0099528432 0.041162752 0.077396959
-0.002975177 0.027207427 0.081228979
-0.002975177 0.034185089 0.079920352
-0.0069158748 0.034185089 0.079909623
-0.0064640082 0.034220994 0.079909623
-0.0064640082 0.03767392 0.078954794
-0.002975177 0.034230895 0.079909623
-0.002975177 0.03767392 0.078942001
-0.0064640082 0.041162752 0.07763686
-0.002975177 0.041162752 0.077726074
-0.0064640082 0.034185089 0.079917721
-0.01518609 0.042873174 0.071187541
-0.01518609 0.042907171 0.069644593
-0.015153337 0.042907171 0.071187541
-0.013441674 0.044568956 0.071187541
-0.01518609 0.042767905 0.07293196
-0.015041627 0.042907171 0.07293196
-0.013441674 0.04434476 0.07293196
-0.013353165 0.04465159 0.071187541
-0.013082199 0.04465159 0.07293196
-0.011697259 0.046131499 0.071187541
-0.011383083 0.046396002 0.071187541
-0.0099528432 0.047375843 0.071187541
-0.011697259 0.045781218 0.07293196
-0.01086811 0.046396002 0.07293196
-0.0099528432 0.04694996 0.07293196
-0.01518609 0.042301841 0.074676372
-0.014382292 0.042907171 0.074676372
-0.013441674 0.04353337 0.074676372
-0.013441674 0.041892156 0.076420791
-0.013441674 0.042907171 0.075494498
-0.011697259 0.044542842 0.074676372
-0.011697259 0.04465159 0.07456366
-0.011492275 0.04465159 0.074676372
-0.011697259 0.042494342 0.076420791
-0.011697259 0.042907171 0.076128297
-0.010092441 0.042907171 0.076420791
-0.0099528432 0.042938918 0.076420791
-0.0099528432 0.04465159 0.075246215
-0.0099528432 0.045388199 0.074676372
-0.0099528432 0.046396002 0.073723957
-0.0082084239 0.048090592 0.071187541
-0.0080197267 0.048140422 0.071187541
-0.0064640082 0.048140422 0.069755509
-0.0082084239 0.047647431 0.07293196
-0.0064640082 0.048052378 0.07293196
-0.0064640082 0.048140422 0.072761737
-0.0060104132 0.048140422 0.07293196
-0.0082084239 0.043312125 0.076420791
-0.0082084239 0.04465159 0.075616948
-0.0064640082 0.043727413 0.076420791
-0.0064640082 0.04465159 0.075903647
-0.002975177 0.044228695 0.076420791
-0.002975177 0.04465159 0.076212242
-0.0082084239 0.046016701 0.074676372
-0.0082084239 0.046396002 0.07438118
-0.0068078525 0.046396002 0.074676372
-0.0064640082 0.046479188 0.074676372
-0.0064640082 0.046396002 0.074739277
-0.0047195926 0.046841338 0.074676372
-0.0047195926 0.048140422 0.073332205
-0.002975177 0.047064975 0.074676372
-0.002975177 0.048140422 0.073676266
-0.0047195926 0.04465159 0.076122783
-0.0047195926 0.046396002 0.07501407
-0.002975177 0.046396002 0.075167038
0.00051365793 0.043746799 0.076420791
0.00051365793 0.04465159 0.075968243
-0.0012307614 0.047061905 0.074676372
-0.0012307614 0.048140422 0.073762693
0.00051365793 0.046827249 0.074676372
0.00051365793 0.048140422 0.07369525
-0.0012307614 0.04465159 0.076162882
-0.0012307614 0.046396002 0.075141042
0.00051365793 0.046396002 0.074957334
0.0026692376 0.046396002 0.074676372
0.0022580735 0.04648345 0.074676372
0.0022580735 0.048140422 0.073687851
0.0022580735 0.04465159 0.075684957
0.0022580735 0.046396002 0.074726515
-0.0064640082 0.048455387 0.071187541
-0.0047195926 0.048736155 0.071187541
-0.002975177 0.049040504 0.071187541
-0.0047195926 0.04838948 0.07293196
-0.002975177 0.048673138 0.07293196
-0.0012307614 0.049328014 0.071187541
0.00051365793 0.049699873 0.071187541
-0.0012307614 0.048811927 0.07293196
0.00051365793 0.048887521 0.07293196
0.0010958053 0.049884833 0.071187541
0.0022580735 0.050401479 0.071187541
0.0022580735 0.049173996 0.07293196
0.0022580735 0.049884833 0.072170049
0.0038002729 0.049884833 0.07293196
0.00051365793 0.041162752 0.077538058
0.0074913204 -0.022631902 0.013621803
0.0074913204 -0.021636233 0.012014981
0.010980152 -0.022527786 0.013621803
0.010980152 -0.021636233 0.012011755
0.01446899 -0.021895668 0.013621803
0.01446899 -0.021636233 0.012943203
0.015346192 -0.021636233 0.013621803
0.0057469048 -0.018644903 0.01013297
0.0057469048 -0.0181474 0.009970611
0.0074913204 -0.018446656 0.01013297
0.0074913204 -0.0181474 0.010041269
0.0092357397 -0.018236801 0.01013297
0.0092357397 -0.0181474 0.010108102
0.0098115727 -0.0181474 0.01013297
0.0057469048 -0.016402982 0.0094604492
0.0074913204 -0.016402982 0.0095509477
0.0057469048 -0.014658567 0.0089992676
0.0074913204 -0.014658567 0.0090918634
0.0092357397 -0.016402982 0.0096515957
0.010980152 -0.017913802 0.01013297
0.010980152 -0.016402982 0.0097527523
0.0092357397 -0.014658567 0.0092133023
0.010980152 -0.014658567 0.0093137361
0.0042455085 -0.021636233 0.011877388
0.0057469048 -0.021533471 0.011877388
0.0057469048 -0.019891815 0.010643208
0.0074913204 -0.021511296 0.011877388
0.0074913204 -0.019891815 0.010696949
0.0057469048 -0.021636233 0.011992622
0.0092357397 -0.021541512 0.011877388
0.0092357397 -0.019891815 0.010712758
0.010980152 -0.021519618 0.011877388
0.010980152 -0.019891815 0.010756813
0.010980152 -0.0181474 0.010194402
0.0092357397 -0.021636233 0.011983193
0.012724571 -0.017509611 0.01013297
0.012724571 -0.016402982 0.0098447166
0.01446899 -0.017077444 0.01013297
0.01446899 -0.016402982 0.0099546257
0.012724571 -0.014658567 0.0093792733
0.01446899 -0.014658567 0.0094823819
0.016213402 -0.016465498 0.01013297
0.016213402 -0.016402982 0.010118615
0.016345322 -0.016402982 0.01013297
0.016213402 -0.014658567 0.0096924268
0.017957821 -0.015511742 0.01013297
0.017957821 -0.014658567 0.0099647511
0.012724571 -0.021322014 0.011877388
0.012724571 -0.019891815 0.010889757
0.01446899 -0.020918148 0.011877388
0.01446899 -0.019891815 0.0111212
0.012724571 -0.0181474 0.010306304
0.01446899 -0.0181474 0.010441678
0.012724571 -0.021636233 0.012263715
0.016213402 -0.020353014 0.011877388
0.016213402 -0.019891815 0.011492778
0.01754646 -0.019891815 0.011877388
0.016213402 -0.0181474 0.010611387
0.017957821 -0.019764915 0.011877388
0.017957821 -0.0181474 0.010814654
0.016213402 -0.021363726 0.013621803
0.017957821 -0.020771688 0.013621803
0.017957821 -0.019891815 0.012012864
0.017957821 -0.016402982 0.010308536
0.019080892 -0.014658567 0.01013297
0.021446653 -0.01915977 0.013621803
0.021446653 -0.0181474 0.011946546
0.023140691 -0.0181474 0.013621803
0.019702233 -0.0181474 0.011165163
0.019702233 -0.016402982 0.010516426
0.02133555 -0.0181474 0.011877388
0.021446653 -0.018080281 0.011877388
0.021446653 -0.016402982 0.010870852
0.019702233 -0.014658567 0.010221217
0.021446653 -0.014658567 0.010509416
0.023191072 -0.016825464 0.011877388
0.023191072 -0.016402982 0.011593066
0.02367235 -0.016402982 0.011877388
0.023191072 -0.014658567 0.010947257
0.024935484 -0.015217816 0.011877388
0.024935484 -0.014658567 0.01160861
0.023191072 -0.018116267 0.013621803
0.024935484 -0.016894687 0.013621803
0.024935484 -0.016402982 0.012877265
0.027458064 -0.014658567 0.013621803
0.0057469048 -0.01204676 0.0083885547
0.0057469048 -0.011169735 0.0082220975
0.0074913204 -0.011911392 0.0083885547
0.0074913204 -0.011169735 0.0082198363
0.0057469048 -0.012914151 0.0085746329
0.0074913204 -0.012914151 0.0086352173
0.0092357397 -0.011566494 0.0083885547
0.0092357397 -0.011169735 0.0082868431
0.010980152 -0.011228964 0.0083885547
0.010980152 -0.011169735 0.0083729364
0.0092357397 -0.012914151 0.0087465141
0.010980152 -0.012914151 0.0088426899
0.0057469048 -0.009425316 0.0079483967
0.0074913204 -0.009425316 0.007875951
0.0057469048 -0.0076809004 0.0076990854
0.0074913204 -0.0076809004 0.007574372
0.0092357397 -0.009425316 0.0078765117
0.010980152 -0.009425316 0.0079379138
0.0092357397 -0.0076809004 0.0075138286
0.010980152 -0.0076809004 0.0075434465
0.011348054 -0.011169735 0.0083885547
0.012724571 -0.012914151 0.0088984314
0.01446899 -0.012914151 0.0089967009
0.012724571 -0.011169735 0.0084504243
0.01446899 -0.011169735 0.0085787345
0.016213402 -0.012914151 0.0092314575
0.017957821 -0.012914151 0.0095829163
0.016213402 -0.011169735 0.0088391155
0.017957821 -0.011169735 0.0092337914
0.012724571 -0.010910243 0.0083885547
0.012724571 -0.009425316 0.0080526266
0.01446899 -0.010205861 0.0083885547
0.01446899 -0.009425316 0.0082485992
0.012724571 -0.0076809004 0.0076798536
0.01446899 -0.0076809004 0.0079300255
0.015356228 -0.009425316 0.0083885547
0.016213402 -0.0083133988 0.0083885547
0.016213402 -0.0076809004 0.0082843509
0.016662791 -0.0076809004 0.0083885547
0.016213402 -0.009425316 0.0085546933
0.017957821 -0.009425316 0.0089650489
0.017957821 -0.0076809004 0.0086948704
0.0057469048 -0.0059364848 0.0074573494
0.0074913204 -0.0059364848 0.0072984584
0.0057469048 -0.0041920692 0.0072753523
0.0074913204 -0.0041920692 0.0071064532
0.0092357397 -0.0059364848 0.0071979556
0.010980152 -0.0059364848 0.0072057582
0.0092357397 -0.0041920692 0.0069881584
0.010980152 -0.0041920692 0.0069816597
0.0057469048 -0.0024476536 0.0072073657
0.0074913204 -0.0024476536 0.0070518591
0.0057469048 -0.00070323795 0.0072767623
0.0074913204 -0.00070323795 0.0071396772
0.0092357397 -0.0024476536 0.00692573
0.010980152 -0.0024476536 0.0069038551
0.0092357397 -0.00070323795 0.0070120301
0.010980152 -0.00070323795 0.0069648959
0.012724571 -0.0059364848 0.0073433202
0.01446899 -0.0059364848 0.0076033305
0.012724571 -0.0041920692 0.0071066953
0.01446899 -0.0041920692 0.007342549
0.016213402 -0.0059364848 0.0079673119
0.017957821 -0.0060338303 0.0083885547
0.017957821 -0.0059364848 0.0083692037
0.016213402 -0.0041920692 0.0076707825
0.017957821 -0.0041920692 0.008034803
0.012724571 -0.0024476536 0.0070027597
0.01446899 -0.0024476536 0.0071914997
0.012724571 -0.00070323795 0.0070137084
0.01446899 -0.00070323795 0.0071289409
0.016213402 -0.0024476536 0.0074494276
0.017957821 -0.0024476536 0.0077425558
0.016213402 -0.00070323795 0.0072959829
0.017957821 -0.00070323795 0.0075090304
0.019702233 -0.014057375 0.01013297
0.019702233 -0.012914151 0.0099595524
0.020510092 -0.012914151 0.01013297
0.019702233 -0.011169735 0.0096918792
0.0212982 -0.011169735 0.01013297
0.019702233 -0.009425316 0.0094188694
0.021446653 -0.010852624 0.01013297
0.021446653 -0.009425316 0.0098930299
0.019702233 -0.0076809004 0.0091058109
0.021446653 -0.0076809004 0.0095093548
0.022368945 -0.009425316 0.01013297
0.023191072 -0.0086538792 0.01013297
0.023191072 -0.0076809004 0.0098713487
0.024935484 -0.0078617968 0.01013297
0.024935484 -0.0076809004 0.010079343
0.021446653 -0.012914151 0.010341033
0.021446653 -0.011169735 0.010174282
0.023191072 -0.012914151 0.010752834
0.024935484 -0.012914151 0.011170851
0.023191072 -0.011169735 0.010626692
0.024935484 -0.011169735 0.010929547
0.023191072 -0.009425316 0.010321649
0.024935484 -0.009425316 0.010567019
0.026679903 -0.0077906661 0.01013297
0.026679903 -0.0076809004 0.010101726
0.028424315 -0.0079983622 0.01013297
0.028424315 -0.0076809004 0.01003688
0.030168734 -0.0078244358 0.01013297
0.030168734 -0.0076809004 0.010076974
0.0305622 -0.0076809004 0.01013297
0.025476918 -0.014658567 0.011877388
0.026679903 -0.013424098 0.011877388
0.026679903 -0.012914151 0.011664895
0.02722241 -0.012914151 0.011877388
0.026679903 -0.011169735 0.011105375
0.028424315 -0.011936203 0.011877388
0.028424315 -0.011169735 0.011427931
0.026679903 -0.014658567 0.01271428
0.028424315 -0.013699824 0.013621803
0.028424315 -0.012914151 0.012651749
0.031073175 -0.011169735 0.013621803
0.026679903 -0.009425316 0.010604024
0.028424315 -0.009425316 0.010632575
0.029470712 -0.011169735 0.011877388
0.030168734 -0.010652717 0.011877388
0.030168734 -0.009425316 0.010955324
0.031676233 -0.009425316 0.011877388
0.031913146 -0.0092079826 0.011877388
0.031913146 -0.0076809004 0.010612382
0.030168734 -0.011169735 0.01239259
0.031913146 -0.010349471 0.013621803
0.031913146 -0.009425316 0.012127763
0.018044822 -0.0059364848 0.0083885547
0.019702233 -0.0043329261 0.0083885547
0.019702233 -0.0041920692 0.0083594173
0.019872591 -0.0041920692 0.0083885547
0.019702233 -0.0059364848 0.0087332893
0.021446653 -0.0059364848 0.0090714078
0.021446653 -0.0041920692 0.008657109
0.023191072 -0.0059364848 0.0093766861
0.024935484 -0.0059364848 0.0095741302
0.023191072 -0.0041920692 0.0089440029
0.024935484 -0.0041920692 0.009172298
0.019702233 -0.0024476536 0.0080302563
0.021446653 -0.0028295629 0.0083885547
0.021446653 -0.0024476536 0.0083227716
0.019702233 -0.00070323795 0.0077683553
0.021446653 -0.00070323795 0.0080744531
0.021828681 -0.0024476536 0.0083885547
0.023138829 -0.00070323795 0.0083885547
0.023191072 -0.0024476536 0.0086234584
0.024935484 -0.0024476536 0.0089080818
0.023191072 -0.00070323795 0.0083982218
0.024935484 -0.00070323795 0.0087046325
0.026679903 -0.0059364848 0.0096420236
0.028424315 -0.0059364848 0.0096035693
0.026679903 -0.0041920692 0.0093202312
0.028424315 -0.0041920692 0.0093608052
0.030168734 -0.0059364848 0.0095581282
0.031913146 -0.006803032 0.01013297
0.031913146 -0.0059364848 0.0097961482
0.030168734 -0.0041920692 0.0093146581
0.031913146 -0.0041920692 0.0094138235
0.026679903 -0.0024476536 0.0091384817
0.028424315 -0.0024476536 0.0092541557
0.026679903 -0.00070323795 0.0089564472
0.028424315 -0.00070323795 0.0091033354
0.030168734 -0.0024476536 0.0092411079
0.031913146 -0.0024476536 0.0092728678
0.030168734 -0.00070323795 0.009134924
0.031913146 -0.00070323795 0.0091738831
0.0057469048 0.0010411814 0.0074651893
0.0074913204 0.0010411814 0.0073492154
0.0057469048 0.002785597 0.0076748766
0.0074913204 0.002785597 0.0075827464
0.0092357397 0.0010411814 0.0072262846
0.010980152 0.0010411814 0.0071358774
0.0092357397 0.002785597 0.0074595548
0.010980152 0.002785597 0.007313801
0.0057469048 0.0045300126 0.0078178253
0.0074913204 0.0045300126 0.0077305995
