# .PCD v0.7 - Point Cloud Data file format
VERSION 0.7
FIELDS x y z
SIZE 4 4 4
TYPE F F F
COUNT 1 1 1
WIDTH 1259
HEIGHT 1
VIEWPOINT 0 0 0 1 0 0 0
POINTS 1259
DATA ascii
-0.018106561 0.035213027 0.041499328
-0.020003941 0.034631152 0.041499328
-0.019938216 0.034651596 0.041499328
-0.016274907 0.035710122 0.041499328
-0.014443256 0.036047254 0.041499328
-0.0071166381 0.03593247 0.037836019
-0.0071166381 0.036019538 0.036004364
-0.012611602 0.036208373 0.041499328
-0.010779947 0.036241766 0.041499328
-0.0071166381 0.035857994 0.039667673
-0.0089482926 0.036120322 0.041499328
-0.0071166381 0.035816353 0.041499328
0.0013598651 0.010819655 -0.0171136
0.0075365975 0.005066786 -0.0171136
0.018657975 0.018146265 0.041499328
0.022189826 0.012778047 0.041499328
0.020944357 0.014482956 0.041499328
0.019839004 0.016314615 0.041499328
0.020358175 0.015422512 0.041499328
0.0088046193 0.025472883 0.041499328
0.0093682483 0.025181416 0.041499328
0.011199899 0.024219599 0.041499328
0.012327902 0.023641232 0.041499328
0.013031557 0.023263957 0.041499328
0.014863208 0.022068765 0.041499328
0.015196443 0.021809574 0.041499328
0.018526517 0.018325966 0.041499328
0.017111748 0.019977923 0.041499328
0.016694866 0.020412248 0.041499328
0.021724626 0.023641232 0.041499328
0.022189826 0.023224089 0.041499328
0.019573741 0.025472883 0.041499328
0.020358175 0.024827424 0.041499328
0.024021477 -0.0038335808 0.012767676
0.02498959 -0.0038335808 0.014024518
0.025588021 -0.0038335808 0.015856173
0.025853135 -0.0038335808 0.017278004
0.026203752 -0.0038335808 0.019519482
0.025921144 -0.0038335808 0.017687827
0.033014417 -0.0038335808 0.019519482
0.032771595 -0.0038335808 0.015856173
0.032949969 -0.0038335808 0.017687827
0.025816634 -0.0038335808 0.026846096
0.026353493 -0.0038335808 0.021351133
0.026285805 -0.0038335808 0.023182787
0.025853135 -0.0038335808 0.026579633
0.026075438 -0.0038335808 0.025014441
0.032982729 -0.0038335808 0.026846096
0.032989785 -0.0038335808 0.021351133
0.032952465 -0.0038335808 0.023182787
0.032952897 -0.0038335808 0.025014441
0.025607951 -0.0038335808 0.030509405
0.025853135 -0.0038335808 0.03333354
0.025979385 -0.0038335808 0.03417271
0.033131301 -0.0038335808 0.03417271
0.033009 -0.0038335808 0.02867775
0.033041917 -0.0038335808 0.030509405
0.033086091 -0.0038335808 0.032341059
0.02707573 -0.0038335808 0.041499328
0.026174679 0.0034930371 0.041499328
0.026659712 -0.0038335808 0.037836019
0.026318274 -0.0038335808 0.036004364
0.026802003 -0.00017027184 0.041499328
0.026913695 -0.0038335808 0.039667673
0.026959509 -0.0020019263 0.041499328
0.02654206 0.0016613789 0.041499328
0.033175185 -0.0038335808 0.036004364
0.033179753 -0.0038335808 0.036200646
0.033201113 -0.0038335808 0.037836019
0.033152327 -0.0038335808 0.041499328
0.032991111 -0.00017027184 0.041499328
0.033179753 -0.0038335808 0.040115468
0.033129394 -0.0020019263 0.041499328
0.033187889 -0.0038335808 0.039667673
0.032833345 0.0016613789 0.041499328
0.032671168 0.0034930371 0.041499328
0.025183067 0.007156346 0.041499328
0.025853135 0.0048644803 0.041499328
0.025734536 0.0053246878 0.041499328
0.024484016 0.0089879967 0.041499328
0.023582846 0.010819655 0.041499328
0.024021477 0.010008734 0.041499328
0.031909399 0.007156346 0.041499328
0.032402761 0.0053246878 0.041499328
0.031168513 0.0089879967 0.041499328
0.031348094 0.0085971616 0.041499328
0.03023082 0.010819655 0.041499328
0.026764147 0.018146265 0.041499328
0.029516444 0.0123608 0.041499328
0.022287101 0.012651306 0.041499328
0.029399291 0.012651306 0.041499328
0.028662913 0.014482956 0.041499328
0.027832143 0.016314615 0.041499328
0.027684785 0.016603854 0.041499328
0.023683473 0.021809574 0.041499328
0.025853135 0.019388359 0.041499328
0.025367022 0.019977923 0.041499328
0.024021477 0.021459434 0.041499328
0.00020997971 0.028813329 0.041499328
-0.0005107671 0.029136192 0.041499328
-0.0052849837 0.03077152 0.041499328
-0.0034533292 0.030341733 0.041499328
-0.0016216785 0.029624868 0.041499328
0.0038732886 0.027358275 0.041499328
0.0020416304 0.028019372 0.041499328
0.0040446669 0.027304534 0.041499328
0.0057049394 0.026777375 0.041499328
0.0075365975 0.026073348 0.041499328
-0.0034533292 0.03549071 0.041499328
-0.0052849837 0.035534669 0.041499328
-0.0016216785 0.035554808 0.041499328
0.00020997971 0.035503913 0.041499328
0.0038732886 0.034792002 0.041499328
0.0020416304 0.035247643 0.041499328
0.0043905154 0.034631152 0.041499328
0.0057049394 0.034130421 0.041499328
0.0075365975 0.03323682 0.041499328
0.0083898902 0.032799501 0.041499328
0.014863208 0.029319469 0.041499328
0.0093682483 0.032304797 0.041499328
0.011199899 0.031405341 0.041499328
0.012112647 0.030967843 0.041499328
0.013031557 0.030488711 0.041499328
0.015120044 0.029136192 0.041499328
0.018526517 0.026320305 0.041499328
0.017349914 0.027304534 0.041499328
0.016694866 0.027861949 0.041499328
-0.026174441 -0.040466659 0.041499328
-0.025433179 -0.040950187 0.041499328
-0.02176987 -0.042943034 0.041499328
-0.023149855 -0.042298317 0.041499328
-0.023601525 -0.04206169 0.041499328
-0.029096484 -0.038389362 0.041499328
-0.031217683 -0.036803354 0.041499328
-0.030928139 -0.037020072 0.041499328
-0.032759793 -0.035580628 0.041499328
-0.033484038 -0.034971699 0.041499328
-0.034591448 -0.033967584 0.041499328
-0.02176987 -0.034730636 0.041499328
-0.028750394 -0.038635008 0.041499328
-0.027264833 -0.039702952 0.041499328
-0.023601525 -0.033941962 0.041499328
-0.0071166381 -0.048370924 0.070805788
-0.0071166381 -0.047793277 0.066378266
-0.0071166381 -0.047979761 0.067142487
-0.0071166381 -0.048350595 0.068974137
-0.0071166381 -0.0403235 0.070805788
-0.0071166381 -0.046550602 0.056152564
-0.0071166381 -0.047129974 0.06347917
-0.0071166381 -0.04671634 0.059815865
-0.0071166381 -0.046662927 0.057984214
-0.0071166381 -0.046839811 0.061647523
-0.0071166381 -0.038584299 0.056152564
-0.0071166381 -0.038853683 0.06347917
-0.0071166381 -0.03875538 0.059815865
-0.0071166381 -0.038645912 0.057984214
-0.0071166381 -0.038635008 0.057779256
-0.0071166381 -0.038849615 0.061647523
-0.0071166381 -0.047537602 0.065310836
-0.0071166381 -0.038945653 0.067142487
-0.0071166381 -0.038815781 0.065310836
-0.0071166381 -0.039429348 0.068974137
-0.0071166381 -0.047793277 0.072457939
-0.0071166381 -0.040466659 0.071034819
-0.0071166381 -0.044129968 0.074124336
-0.0071166381 -0.047674894 0.072637439
-0.0071166381 -0.045961622 0.073976085
-0.0071166381 -0.041713454 0.072637439
-0.0071166381 -0.042298317 0.073197082
-0.0071166381 -0.045170687 0.02867775
-0.0071166381 -0.045419369 0.030509405
-0.0071166381 -0.045629106 0.032341059
-0.0071166381 -0.045772541 0.03417271
-0.0071166381 -0.036803354 0.027216561
-0.0071166381 -0.03639216 0.030509405
-0.0071166381 -0.036487944 0.03417271
-0.018696271 -0.044129968 0.041499328
-0.018106561 -0.044340223 0.041499328
-0.016274907 -0.045001835 0.041499328
-0.014443256 -0.045557529 0.041499328
-0.019938216 -0.04368142 0.041499328
-0.0071166381 -0.045863584 0.036004364
-0.0071166381 -0.045968473 0.037836019
-0.0071166381 -0.045961622 0.03774225
-0.012174781 -0.045961622 0.041499328
-0.010779947 -0.046094798 0.041499328
-0.012611602 -0.045906268 0.041499328
-0.0071166381 -0.046100814 0.039667673
-0.0089482926 -0.046168633 0.041499328
-0.0071166381 -0.046146423 0.041499328
-0.01541353 -0.036803354 0.041499328
-0.014443256 -0.037020974 0.041499328
-0.021141853 -0.034971699 0.041499328
-0.019938216 -0.035411999 0.041499328
-0.018106561 -0.036047533 0.041499328
-0.016274907 -0.036588408 0.041499328
-0.0071166381 -0.037177831 0.037836019
-0.0071166381 -0.036803354 0.036120802
-0.012611602 -0.03739094 0.041499328
-0.010779947 -0.037681855 0.041499328
-0.0071166381 -0.037576135 0.039667673
-0.0089482926 -0.037874922 0.041499328
-0.0071166381 -0.037947327 0.041499328
-0.0071166381 -0.046036579 0.043330982
-0.0071166381 -0.045961622 0.044105355
-0.0071166381 -0.045874611 0.045162637
-0.0071166381 -0.045790032 0.046994288
-0.0071166381 -0.045798 0.048825946
-0.0071166381 -0.038302623 0.043330982
-0.0071166381 -0.038572595 0.045162637
-0.0071166381 -0.038650569 0.046994288
-0.0071166381 -0.038635008 0.046039294
-0.0071166381 -0.038635008 0.047824893
-0.0071166381 -0.038612802 0.048825946
-0.0071166381 -0.045881689 0.050657596
-0.0071166381 -0.046068288 0.052489255
-0.0071166381 -0.045961622 0.051593568
-0.0071166381 -0.046330586 0.054320905
-0.0071166381 -0.038610715 0.050657596
-0.0071166381 -0.038624395 0.052489255
-0.0071166381 -0.038595296 0.054320905
-0.048933104 -0.0038335808 0.043330982
-0.048796497 -0.0038335808 0.045162637
-0.048707288 -0.0038335808 0.046994288
-0.048678048 -0.0038335808 0.048825946
-0.041353434 -0.0038335808 0.043330982
-0.041736051 -0.0038335808 0.045162637
-0.042145588 -0.0038335808 0.046994288
-0.041918062 -0.0038335808 0.045992594
-0.042580798 -0.0038335808 0.048825946
-0.048715491 -0.0038335808 0.050657596
-0.048791356 -0.0038335808 0.052489255
-0.04886841 -0.0038335808 0.054320905
-0.048946232 -0.0038335808 0.056152564
-0.042922512 -0.0038335808 0.050657596
-0.042994089 -0.0038335808 0.052489255
-0.042802982 -0.0038335808 0.054320905
-0.042571943 -0.0038335808 0.056152564
-0.049016915 -0.0038335808 0.057984214
-0.049084462 -0.0038335808 0.059815865
-0.049226023 -0.0038335808 0.061647523
-0.049523614 -0.0038335808 0.06347917
-0.04924468 -0.0038335808 0.061803307
-0.042498179 -0.0038335808 0.057984214
-0.042620391 -0.0038335808 0.059815865
-0.042874075 -0.0038335808 0.061647523
-0.043102391 -0.0038335808 0.06347917
-0.049913988 -0.0038335808 0.065310836
-0.050258677 -0.0038335808 0.067142487
-0.050437175 -0.0038335808 0.068974137
-0.050207719 -0.0038335808 0.070805788
-0.044518534 -0.0038335808 0.068974137
-0.04374972 -0.0038335808 0.067316487
-0.045624964 -0.0038335808 0.070805788
-0.045581371 -0.0038335808 0.070741162
-0.043277137 -0.0038335808 0.065310836
-0.043686725 -0.0038335808 0.067142487
-0.04924468 -0.0038335808 0.072151735
-0.047413025 -0.0038335808 0.072335064
-0.048859458 -0.0020019263 0.041499328
-0.048539184 -0.00017027184 0.041499328
-0.048110239 0.0016613789 0.041499328
-0.047674045 0.0034930371 0.041499328
-0.04096853 -0.0020019263 0.041499328
-0.040868104 -0.00017027184 0.041499328
-0.040675469 0.0016613789 0.041499328
-0.040425114 0.0034930371 0.041499328
-0.047413025 0.0046450458 0.041499328
-0.047254439 0.0053246878 0.041499328
-0.046760947 0.007156346 0.041499328
-0.046147324 0.0089879967 0.041499328
-0.045581371 0.010406833 0.041499328
-0.045393117 0.010819655 0.041499328
-0.04011105 0.0053246878 0.041499328
-0.040086411 0.0054446496 0.041499328
-0.039633296 0.007156346 0.041499328
-0.038989078 0.0089879967 0.041499328
-0.03833767 0.010819655 0.041499328
-0.044342026 0.012651306 0.041499328
-0.04374972 0.01352999 0.041499328
-0.043051079 0.014482956 0.041499328
-0.038254756 0.01106682 0.041499328
-0.037711985 0.012651306 0.041499328
-0.036916826 0.014482956 0.041499328
-0.041918062 0.015929688 0.041499328
-0.041620877 0.016314615 0.041499328
-0.04019497 0.018146265 0.041499328
-0.036423102 0.015351694 0.041499328
-0.040086411 0.018293891 0.041499328
-0.03879676 0.019977923 0.041499328
-0.038254756 0.020704556 0.041499328
-0.037425447 0.021809574 0.041499328
-0.036423102 0.023078006 0.041499328
-0.035742916 0.016314615 0.041499328
-0.034591448 0.017701585 0.041499328
-0.034195453 0.018146265 0.041499328
-0.032759793 0.019606184 0.041499328
-0.032370247 0.019977923 0.041499328
-0.030928139 0.021316815 0.041499328
-0.030371334 0.021809574 0.041499328
-0.035942733 0.023641232 0.041499328
-0.034591448 0.025088873 0.041499328
-0.029096484 0.022833485 0.041499328
-0.027907845 0.023641232 0.041499328
-0.027264833 0.024031747 0.041499328
-0.025433179 0.025057938 0.041499328
-0.0071166381 0.030967843 0.042304367
-0.0071166381 0.031051818 0.043330982
-0.0071166381 0.031024005 0.045162637
-0.0071166381 0.030908804 0.046994288
-0.0071166381 0.030967843 0.046094526
-0.0071166381 0.030797441 0.048825946
-0.0071166381 0.035853032 0.043330982
-0.0071166381 0.035865534 0.045162637
-0.0071166381 0.035834257 0.046994288
-0.0071166381 0.035859305 0.048825946
-0.0071166381 0.030741084 0.050657596
-0.0071166381 0.0307911 0.052489255
-0.0071166381 0.030949984 0.054320905
-0.0071166381 0.030967843 0.054483417
-0.0071166381 0.031148691 0.056152564
-0.0071166381 0.035919856 0.050657596
-0.0071166381 0.03593253 0.052489255
-0.0071166381 0.035844285 0.054320905
-0.0071166381 0.035777863 0.056152564
-0.0071166381 0.031311948 0.057984214
-0.0071166381 0.031393077 0.059815865
-0.0071166381 0.03136849 0.061647523
-0.0071166381 0.031295773 0.06347917
-0.0071166381 0.036015924 0.057984214
-0.0071166381 0.03646281 0.059245188
-0.0071166381 0.036737625 0.059815865
-0.0071166381 0.037764084 0.061647523
-0.0071166381 0.038294461 0.062695891
-0.0071166381 0.038642909 0.06347917
-0.0071166381 0.031285178 0.065310836
-0.0071166381 0.031524736 0.067142487
-0.0071166381 0.032234605 0.068974137
-0.0071166381 0.032799501 0.06990768
-0.0071166381 0.039301191 0.065310836
-0.0071166381 0.039627168 0.067142487
-0.0071166381 0.033490013 0.070805788
-0.0071166381 0.039567586 0.068974137
-0.0071166381 0.039066005 0.070805788
-0.0071166381 0.034631152 0.071903571
-0.0071166381 0.036008853 0.072637439
-0.0071166381 0.03646281 0.072718158
-0.0071166381 0.037325319 0.072637439
-0.0071166381 0.038294461 0.072015792
-0.0052849837 -0.046037927 0.041499328
-0.0045683607 -0.045961622 0.041499328
-0.0034533292 -0.045791041 0.041499328
-0.0016216785 -0.045366555 0.041499328
0.00020997971 -0.044847518 0.041499328
0.0020416304 -0.044313326 0.041499328
0.0026428849 -0.044129968 0.041499328
0.0038732886 -0.043713704 0.041499328
0.0057049394 -0.043011557 0.041499328
0.0074914098 -0.042298317 0.041499328
0.0075365975 -0.042279758 0.041499328
-0.0052849837 -0.037918106 0.041499328
-0.0034533292 -0.037815925 0.041499328
-0.0016216785 -0.037645273 0.041499328
0.00020997971 -0.037419461 0.041499328
0.0020416304 -0.037119113 0.041499328
0.0033766255 -0.036803354 0.041499328
0.0038732886 -0.036656175 0.041499328
0.0057049394 -0.035991162 0.041499328
0.0075365975 -0.03527341 0.041499328
0.0093682483 -0.041375317 0.041499328
0.010831833 -0.040466659 0.041499328
0.011199899 -0.040217273 0.041499328
0.013031557 -0.03883408 0.041499328
0.013296969 -0.038635008 0.041499328
0.014863208 -0.037453808 0.041499328
0.008346118 -0.034971699 0.041499328
0.0093682483 -0.034573287 0.041499328
0.011199899 -0.033680663 0.041499328
0.012073129 -0.033140045 0.041499328
0.015756682 -0.036803354 0.041499328
0.016694866 -0.036130223 0.041499328
0.018349312 -0.034971699 0.041499328
0.018526517 -0.034849305 0.041499328
0.020358175 -0.033484802 0.041499328
0.020793729 -0.033140045 0.041499328
0.013031557 -0.032436676 0.041499328
0.014361106 -0.03130839 0.041499328
0.014863208 -0.030829199 0.041499328
0.016098112 -0.029476736 0.041499328
0.022189826 -0.032012396 0.041499328
0.016694866 -0.028751995 0.041499328
0.017576344 -0.027645081 0.041499328
0.018526517 -0.02641793 0.041499328
0.018980674 -0.025813427 0.041499328
0.020327389 -0.023981776 0.041499328
0.020358175 -0.023939148 0.041499328
0.021708354 -0.022150122 0.041499328
0.022189826 -0.021515727 0.041499328
0.023024976 -0.03130839 0.041499328
0.024021477 -0.030327637 0.041499328
0.024748035 -0.029476736 0.041499328
0.025853135 -0.028046321 0.041499328
0.026139893 -0.027645081 0.041499328
0.027330615 -0.025813427 0.041499328
0.027684785 -0.025167588 0.041499328
0.028286427 -0.023981776 0.041499328
0.029108211 -0.022150122 0.041499328
0.02307409 -0.020318467 0.041499328
0.024021477 -0.018936586 0.041499328
0.024311863 -0.018486813 0.041499328
0.029516444 -0.020907313 0.041499328
0.029667042 -0.020318467 0.041499328
0.030046917 -0.018486813 0.041499328
0.025500968 -0.016655158 0.041499328
0.025853135 -0.016023915 0.041499328
0.026402608 -0.014823504 0.041499328
0.026937887 -0.012991849 0.041499328
0.027186617 -0.011160199 0.041499328
0.030423895 -0.016655158 0.041499328
0.030884773 -0.014823504 0.041499328
0.031348094 -0.013084818 0.041499328
0.031372242 -0.012991849 0.041499328
0.031867698 -0.011160199 0.041499328
0.027287707 -0.0093285441 0.041499328
0.027284451 -0.0074968897 0.041499328
0.027194127 -0.0056652352 0.041499328
0.032334991 -0.0093285441 0.041499328
0.032712795 -0.0074968897 0.041499328
0.033002295 -0.0056652352 0.041499328
0.027202711 -0.0038335808 0.043330982
0.027326159 -0.0038335808 0.045162637
0.027444452 -0.0038335808 0.046994288
0.027510799 -0.0038335808 0.048825946
0.033127524 -0.0038335808 0.043330982
0.033146709 -0.0038335808 0.045162637
0.033179753 -0.0038335808 0.046276886
0.033204503 -0.0038335808 0.046994288
0.033333287 -0.0038335808 0.048825946
0.027458347 -0.0038335808 0.050657596
0.027325056 -0.0038335808 0.052489255
0.027195834 -0.0038335808 0.054320905
0.027142018 -0.0038335808 0.056152564
0.033626668 -0.0038335808 0.050657596
0.033999264 -0.0038335808 0.052489255
0.034287952 -0.0038335808 0.054320905
0.034465395 -0.0038335808 0.056152564
0.027198903 -0.0038335808 0.057984214
0.027316943 -0.0038335808 0.059815865
0.027430132 -0.0038335808 0.061647523
0.027480327 -0.0038335808 0.06347917
0.034566551 -0.0038335808 0.057984214
0.034670047 -0.0038335808 0.059815865
0.034889698 -0.0038335808 0.061647523
0.035011403 -0.0038335808 0.062336322
0.035259135 -0.0038335808 0.06347917
0.027479693 -0.0038335808 0.065310836
0.027679905 -0.0038335808 0.067142487
0.027684785 -0.0038335808 0.067163855
0.028363995 -0.0038335808 0.068974137
0.029485241 -0.0038335808 0.070805788
0.035731383 -0.0038335808 0.065310836
0.03619948 -0.0038335808 0.067142487
0.03652852 -0.0038335808 0.068974137
0.036425911 -0.0038335808 0.070805788
0.029516444 -0.0038335808 0.070852354
0.030888811 -0.0038335808 0.072637439
0.031348094 -0.0038335808 0.073094696
0.033179753 -0.0038335808 0.073811099
0.035441279 -0.0038335808 0.072637439
0.035011403 -0.0038335808 0.073059261
-0.0323928 -0.033140045 -0.002460368
-0.02176987 -0.040363029 -0.002460368
-0.02176987 -0.033140045 -0.0089619467
-0.024600863 -0.040466659 0.0012029409
-0.02176987 -0.041896228 0.0012029409
-0.02176987 -0.040466659 -0.0022653099
-0.025646478 -0.040466659 0.004866248
-0.025433179 -0.040591232 0.004866248
-0.025433179 -0.040466659 0.0035747755
-0.02176987 -0.04234612 0.004866248
-0.029878739 -0.036803354 0.0012029409
-0.029096484 -0.037376124 0.0012029409
-0.029096484 -0.036803354 -0.00044848211
-0.034452893 -0.033140045 0.0012029409
-0.032759793 -0.034578461 0.0012029409
-0.032759793 -0.033140045 -0.0019546458
-0.029096484 -0.035705868 -0.002460368
-0.030504975 -0.036803354 0.004866248
-0.029096484 -0.03790088 0.004866248
-0.035088047 -0.033140045 0.004866248
-0.032759793 -0.035075873 0.004866248
-0.027577464 -0.036803354 -0.002460368
-0.025433179 -0.038249943 -0.002460368
-0.025433179 -0.03996627 0.0012029409
-0.025433179 -0.040466659 0.0082600024
-0.025372848 -0.040466659 0.0085295551
-0.02176987 -0.042126231 0.0085295551
-0.024931446 -0.040466659 0.012192864
-0.02176987 -0.041931406 0.012192864
-0.03056955 -0.036803354 0.0085295551
-0.029096484 -0.037890214 0.0085295551
-0.035013106 -0.033140045 0.0085295551
-0.032759793 -0.035148136 0.0085295551
-0.030873045 -0.036803354 0.012192864
-0.029096484 -0.037969381 0.012192864
-0.035118535 -0.033140045 0.012192864
-0.032759793 -0.035414629 0.012192864
-0.025433179 -0.040434428 0.0085295551
-0.025433179 -0.040207706 0.012192864
-0.021560583 -0.040466659 -0.002460368
-0.018106561 -0.04187905 -0.002460368
-0.018106561 -0.043199401 0.0012029409
-0.014443256 -0.042827517 -0.002460368
-0.014443256 -0.043902569 0.0012029409
-0.018106561 -0.043474287 0.004866248
-0.014443256 -0.044045933 0.004866248
-0.012277059 -0.044129968 0.0012029409
-0.010779947 -0.04424265 0.0012029409
-0.010779947 -0.044129968 0.00055573881
-0.010779947 -0.043315776 -0.002460368
-0.013481565 -0.044129968 0.004866248
-0.010779947 -0.044332623 0.004866248
-0.018106561 -0.04330672 0.0085295551
-0.014443256 -0.043936536 0.0085295551
-0.014456801 -0.044129968 0.012192864
-0.014443256 -0.044132128 0.012192864
-0.014443256 -0.044129968 0.012173921
-0.018106561 -0.04328841 0.012192864
-0.011989616 -0.044129968 0.0085295551
-0.010779947 -0.044186167 0.0085295551
-0.010779947 -0.044430569 0.012192864
-0.014681749 -0.033140045 0.012192864
-0.014443256 -0.033205174 0.012192864
-0.014443256 -0.033140045 0.012134807
-0.012611602 -0.033578441 0.012192864
-0.012611602 -0.033140045 0.011860387
-0.010779947 -0.033726849 0.012192864
-0.010779947 -0.033140045 0.011810176
-0.0089482926 -0.033696398 0.012192864
-0.0089482926 -0.033140045 0.011862393
-0.042345677 -0.018486813 -0.002460368
-0.036423102 -0.029240314 -0.002460368
-0.036423102 -0.018486813 -0.0083628865
-0.038094446 -0.029476736 0.0012029409
-0.036423102 -0.031255357 0.0012029409
-0.036423102 -0.029476736 -0.0021271547
-0.040948592 -0.025813427 0.0012029409
-0.040086411 -0.027065124 0.0012029409
-0.040086411 -0.025813427 -0.00064375438
-0.039006025 -0.025813427 -0.002460368
-0.038528755 -0.029476736 0.004866248
-0.036423102 -0.031829715 0.004866248
-0.041343112 -0.025813427 0.004866248
-0.040086411 -0.027588192 0.004866248
-0.043860063 -0.018486813 0.0012029409
-0.04374972 -0.019002497 0.0012029409
-0.04374972 -0.018486813 0.00078892708
-0.044321217 -0.018486813 0.004866248
-0.04374972 -0.020706661 0.004866248
-0.040996157 -0.022150122 -0.002460368
-0.042821214 -0.022150122 0.0012029409
-0.040086411 -0.024002463 -0.002460368
-0.043266237 -0.022150122 0.004866248
-0.038117677 -0.029476736 0.0085295551
-0.036423102 -0.031603418 0.0085295551
-0.04078503 -0.025813427 0.0085295551
-0.040086411 -0.026846357 0.0085295551
-0.038127549 -0.029476736 0.012192864
-0.036423102 -0.031633656 0.012192864
-0.040799446 -0.025813427 0.012192864
-0.040086411 -0.026809424 0.012192864
-0.044471391 -0.018486813 0.0085295551
-0.04374972 -0.020514157 0.0085295551
-0.044850104 -0.018486813 0.012192864
-0.04374972 -0.021032214 0.012192864
-0.043048628 -0.022150122 0.0085295551
-0.043188952 -0.022150122 0.012192864
-0.044594653 -0.014823504 0.0012029409
-0.04374972 -0.014823504 -0.0015289402
-0.044027887 -0.011160199 -0.002460368
-0.045324512 -0.011160199 0.0012029409
-0.04374972 -0.012639556 -0.002460368
-0.045138121 -0.014823504 0.004866248
-0.045945119 -0.011160199 0.004866248
-0.043293096 -0.014823504 -0.002460368
-0.044587374 -0.0074968897 -0.002460368
-0.04585091 -0.0074968897 0.0012029409
-0.046398796 -0.0074968897 0.004866248
-0.045627676 -0.014823504 0.0085295551
-0.046424609 -0.011160199 0.0085295551
-0.046090949 -0.014823504 0.012192864
-0.046847783 -0.011160199 0.012192864
-0.036520183 -0.011160199 0.012192864
-0.036423102 -0.011602562 0.012192864
-0.036423102 -0.011160199 0.012107374
-0.046705619 -0.0074968897 0.0085295551
-0.047119997 -0.0074968897 0.012192864
-0.036667682 -0.0093285441 0.012192864
-0.036423102 -0.0093285441 0.012004677
-0.036529828 -0.0074968897 0.012192864
-0.036423102 -0.0074968897 0.012116469
-0.036423102 -0.0063300803 0.012192864
-0.02176987 -0.018486813 -0.015052754
-0.036218185 -0.029476736 -0.002460368
-0.032759793 -0.03283713 -0.002460368
-0.034984119 -0.033140045 0.01036121
-0.036423102 -0.031489626 0.01036121
-0.023032282 -0.029476736 0.012192864
-0.02176987 -0.03036914 0.012192864
-0.02176987 -0.029476736 0.01161682
-0.026752993 -0.025813427 0.012192864
-0.025433179 -0.027102161 0.012192864
-0.025433179 -0.025813427 0.011524167
-0.024915423 -0.027645081 0.012192864
-0.023601525 -0.028976321 0.012192864
-0.023601525 -0.027645081 0.011503631
-0.02176987 -0.027645081 0.010982238
-0.023601525 -0.025813427 0.010932166
-0.02176987 -0.025813427 0.010605983
-0.03114282 -0.022150122 0.012192864
-0.030928139 -0.022339903 0.012192864
-0.030928139 -0.022150122 0.012064843
-0.029096484 -0.023802623 0.012192864
-0.029096484 -0.022150122 0.011163371
-0.033443507 -0.018486813 0.012192864
-0.032759793 -0.01998252 0.012192864
-0.032759793 -0.018486813 0.011719255
-0.029824078 -0.018486813 0.01036121
-0.029096484 -0.019855853 0.01036121
-0.029096484 -0.018486813 0.010092942
-0.032574952 -0.020318467 0.012192864
-0.030928139 -0.020318467 0.01122296
-0.029096484 -0.020318467 0.010483256
-0.030928139 -0.018486813 0.010803809
-0.026802111 -0.022150122 0.01036121
-0.025433179 -0.023015127 0.01036121
-0.025433179 -0.022150122 0.010074252
-0.028868482 -0.023981776 0.012192864
-0.027264833 -0.025333047 0.012192864
-0.027264833 -0.023981776 0.011326198
-0.025433179 -0.023981776 0.010728586
-0.027264833 -0.022150122 0.010493716
-0.023029 -0.023981776 0.01036121
-0.02176987 -0.024612792 0.01036121
-0.02176987 -0.023981776 0.01021448
-0.023601525 -0.023754973 0.01036121
-0.023601525 -0.022150122 0.0098653529
-0.02176987 -0.022150122 0.0096820947
-0.023601525 -0.023981776 0.01042801
-0.028743137 -0.020318467 0.01036121
-0.027264833 -0.021767262 0.01036121
-0.027264833 -0.020318467 0.009917561
-0.025433179 -0.020318467 0.0095227417
-0.027264833 -0.018486813 0.0094991084
-0.025433179 -0.018486813 0.0090720449
-0.023601525 -0.020318467 0.0092953257
-0.02176987 -0.020318467 0.0090912133
-0.023601525 -0.018486813 0.0088360682
-0.02176987 -0.018486813 0.0086524151
-0.019905195 -0.03130839 0.012192864
-0.018106561 -0.032008443 0.012192864
-0.018106561 -0.03130839 0.011682691
-0.019938216 -0.031294584 0.012192864
-0.019938216 -0.029476736 0.011196358
-0.018106561 -0.029476736 0.010869673
-0.015579622 -0.029476736 0.01036121
-0.014443256 -0.029875416 0.01036121
-0.014443256 -0.029476736 0.010253934
-0.016274907 -0.032650739 0.012192864
-0.016274907 -0.03130839 0.011240447
-0.014443256 -0.03130839 0.010922948
-0.016274907 -0.029476736 0.010484688
-0.019031715 -0.025813427 0.01036121
-0.018106561 -0.026586037 0.01036121
-0.018106561 -0.025813427 0.010246947
-0.019938216 -0.027645081 0.010769933
-0.018106561 -0.027645081 0.010503691
-0.019938216 -0.025813427 0.010443706
-0.01737522 -0.027645081 0.01036121
-0.016274907 -0.028974332 0.01036121
-0.016274907 -0.027645081 0.010160366
-0.014443256 -0.027645081 0.0099724252
-0.016274907 -0.025813427 0.0099816099
-0.014443256 -0.025813427 0.0098044667
-0.012611602 -0.029603168 0.01036121
-0.012611602 -0.029476736 0.010333389
-0.01238621 -0.029476736 0.01036121
-0.012611602 -0.03130839 0.010891153
-0.010779947 -0.03130839 0.011011202
-0.010779947 -0.029476736 0.010535527
-0.0089482926 -0.03130839 0.011120487
-0.0089482926 -0.029476736 0.010633724
-0.012611602 -0.027645081 0.010053594
-0.010779947 -0.028517641 0.01036121
-0.010779947 -0.027645081 0.010224354
-0.012611602 -0.025813427 0.0098302327
-0.010779947 -0.025813427 0.009913642
-0.0089482926 -0.028256327 0.01036121
-0.0089482926 -0.027645081 0.010230102
-0.0089482926 -0.025813427 0.0098123122
-0.020758078 -0.018486813 0.0085295551
-0.019938216 -0.019084446 0.0085295551
-0.019938216 -0.018486813 0.0084253494
-0.018106561 -0.019897737 0.0085295551
-0.018106561 -0.018486813 0.0082425252
-0.016261134 -0.020318467 0.0085295551
-0.014443256 -0.020462502 0.0085295551
-0.014443256 -0.020318467 0.0084910486
-0.016274907 -0.020315807 0.0085295551
-0.016274907 -0.018486813 0.0081489012
-0.014443256 -0.018486813 0.0081475228
-0.019938216 -0.025404289 0.01036121
-0.019938216 -0.023981776 0.010018922
-0.018106561 -0.023981776 0.0098466035
-0.019938216 -0.022150122 0.0094452985
-0.018106561 -0.022150122 0.0092594773
-0.016274907 -0.023981776 0.0096547697
-0.014443256 -0.023981776 0.0094989315
-0.016274907 -0.022150122 0.0091151856
-0.014443256 -0.022150122 0.0090171974
-0.019938216 -0.020318467 0.0088391751
-0.018106561 -0.020318467 0.0086489245
-0.016274907 -0.020318467 0.0085303299
-0.013208382 -0.020318467 0.0085295551
-0.012611602 -0.020177227 0.0085295551
-0.012611602 -0.018486813 0.0082323123
-0.010779947 -0.019892562 0.0085295551
-0.010779947 -0.018486813 0.0082975328
-0.0087468773 -0.020318467 0.0085295551
-0.0089482926 -0.020235848 0.0085295551
-0.0089482926 -0.018486813 0.0082310587
-0.012611602 -0.023981776 0.0094996616
-0.010779947 -0.023981776 0.0095408149
-0.012611602 -0.022150122 0.0090494137
-0.010779947 -0.022150122 0.0091022421
-0.0089482926 -0.023981776 0.0094017591
-0.0089482926 -0.022150122 0.0089889839
-0.012611602 -0.020318467 0.0085639916
-0.010779947 -0.020318467 0.0086283572
-0.0089482926 -0.020318467 0.0085486639
-0.034177925 -0.016655158 0.012192864
-0.032759793 -0.016655158 0.011345543
-0.035023458 -0.014823504 0.012192864
-0.034591448 -0.015702583 0.012192864
-0.034591448 -0.014823504 0.011905976
-0.032759793 -0.014823504 0.01102096
-0.030431993 -0.016655158 0.01036121
-0.029096484 -0.016655158 0.0098625235
-0.030997824 -0.014823504 0.01036121
-0.030928139 -0.015030529 0.01036121
-0.030928139 -0.014823504 0.010336278
-0.029096484 -0.014823504 0.0096903034
-0.030928139 -0.016655158 0.010554573
-0.035940155 -0.012991849 0.012192864
-0.034591448 -0.012991849 0.011340804
-0.032759793 -0.012991849 0.010651497
-0.034591448 -0.011160199 0.010991694
-0.032759793 -0.011160199 0.010373438
-0.031796485 -0.012991849 0.01036121
-0.030928139 -0.012991849 0.010106435
-0.029096484 -0.012991849 0.0095605366
-0.032711968 -0.011160199 0.01036121
-0.030928139 -0.011160199 0.0099368151
-0.029096484 -0.011160199 0.0094960071
-0.02241049 -0.016655158 0.0085295551
-0.02176987 -0.017523449 0.0085295551
-0.02176987 -0.016655158 0.0084839035
-0.022504762 -0.014823504 0.0085295551
-0.02176987 -0.014823504 0.0085010473
-0.022358503 -0.012991849 0.0085295551
-0.02176987 -0.012991849 0.0085147358
-0.023912456 -0.011160199 0.0085295551
-0.023601525 -0.011595674 0.0085295551
-0.023601525 -0.011160199 0.008503126
-0.02176987 -0.011160199 0.0084225349
-0.027264833 -0.016655158 0.0092515703
-0.025433179 -0.016655158 0.0088138953
-0.027264833 -0.014823504 0.0091238432
-0.025433179 -0.014823504 0.0087406896
-0.023601525 -0.016655158 0.0086049251
-0.023601525 -0.014823504 0.0085729994
-0.027264833 -0.012991849 0.0090682656
-0.025433179 -0.012991849 0.0087387729
-0.027264833 -0.011160199 0.0090510044
-0.025433179 -0.011160199 0.0087091401
-0.023601525 -0.012991849 0.0085784439
-0.032970492 -0.0093285441 0.01036121
-0.032759793 -0.011016563 0.01036121
-0.032759793 -0.0093285441 0.010300813
-0.032990426 -0.0074968897 0.01036121
-0.032759793 -0.0074968897 0.010279646
-0.034591448 -0.0093285441 0.010961454
-0.034591448 -0.0074968897 0.011048779
-0.030928139 -0.0093285441 0.0098563749
-0.029096484 -0.0093285441 0.009439962
-0.030928139 -0.0074968897 0.009749515
-0.029096484 -0.0074968897 0.0093057528
-0.033199977 -0.0056652352 0.01036121
-0.032759793 -0.0056652352 0.010182107
-0.036382183 -0.0056652352 0.012192864
-0.034591448 -0.0056652352 0.011050431
-0.030928139 -0.0056652352 0.0095869899
-0.029096484 -0.0056652352 0.0091212764
-0.025837194 -0.0074968897 0.0085295551
-0.025433179 -0.0083396733 0.0085295551
-0.025433179 -0.0074968897 0.0084475465
-0.024951424 -0.0093285441 0.0085295551
-0.023601525 -0.0093285441 0.0083490871
-0.02176987 -0.0093285441 0.0082348641
-0.023601525 -0.0074968897 0.0081499908
-0.02176987 -0.0074968897 0.008003423
-0.02659807 -0.0056652352 0.0085295551
-0.025433179 -0.0056652352 0.0082845818
-0.023601525 -0.0056652352 0.0079728495
-0.02176987 -0.0056652352 0.0078107771
-0.027264833 -0.0093285441 0.0089967065
-0.025433179 -0.0093285441 0.0086116958
-0.027264833 -0.0074968897 0.0088537186
-0.027264833 -0.0056652352 0.008682033
-0.019938216 -0.016655158 0.0083096642
-0.018106561 -0.016655158 0.0081451163
-0.019938216 -0.014823504 0.0083923452
-0.018106561 -0.014823504 0.0082639065
-0.016274907 -0.016655158 0.008071987
-0.014443256 -0.016655158 0.0080849342
-0.016274907 -0.014823504 0.0082000699
-0.014443256 -0.014823504 0.0082213469
-0.019938216 -0.012991849 0.0084695667
-0.018106561 -0.012991849 0.0084129032
-0.019938216 -0.011160199 0.0084326901
-0.018106561 -0.011160199 0.0084709432
-0.016274907 -0.012991849 0.0083878022
-0.014443256 -0.012991849 0.0084325373
-0.016274907 -0.011160199 0.0085279439
-0.016236018 -0.011160199 0.0085295551
-0.014443256 -0.01212246 0.0085295551
-0.014443256 -0.011160199 0.0086171348
-0.012611602 -0.016655158 0.008164363
-0.010779947 -0.016655158 0.0082247928
-0.012611602 -0.014823504 0.0083035696
-0.010779947 -0.014823504 0.0083654113
-0.0089482926 -0.016655158 0.0081510898
-0.0089482926 -0.014823504 0.0083005
-0.012611602 -0.012991849 0.0085259769
-0.012549873 -0.012991849 0.0085295551
-0.010779947 -0.013530876 0.0085295551
-0.012611602 -0.012963597 0.0085295551
-0.0089482926 -0.013338801 0.0085295551
-0.007944189 -0.012991849 0.0085295551
-0.010779947 -0.012991849 0.0086025018
-0.012611602 -0.011160199 0.0087195244
-0.010779947 -0.011160199 0.0088055842
-0.0089482926 -0.012991849 0.0085890368
-0.0089482926 -0.011160199 0.0088463202
-0.019938216 -0.0093285441 0.0082662776
-0.018106561 -0.0093285441 0.0083860438
-0.019938216 -0.0074968897 0.0080325343
-0.018106561 -0.0074968897 0.0082018878
-0.016400594 -0.0093285441 0.0085295551
-0.016274907 -0.011127803 0.0085295551
-0.016274907 -0.0090403855 0.0085295551
-0.016274907 -0.0074968897 0.0084398314
-0.015596859 -0.0074968897 0.0085295551
-0.019938216 -0.0056652352 0.0078402236
-0.018106561 -0.0056652352 0.0080301668
-0.016274907 -0.0056652352 0.0083139632
-0.014927357 -0.0056652352 0.0085295551
-0.016274907 -0.0093285441 0.008540744
-0.014443256 -0.0093285441 0.0086927544
-0.014443256 -0.0074968897 0.0086648501
-0.014443256 -0.0056652352 0.0085997134
-0.012611602 -0.0093285441 0.0088130608
-0.010779947 -0.0093285441 0.008906398
-0.012611602 -0.0074968897 0.0088280179
-0.010779947 -0.0074968897 0.0089433528
-0.0089482926 -0.0093285441 0.008979518
-0.0089482926 -0.0074968897 0.009033151
-0.012611602 -0.0056652352 0.008816991
-0.010779947 -0.0056652352 0.008963665
-0.0089482926 -0.0056652352 0.009049248
-0.025074501 -0.040466659 0.014024518
-0.023601525 -0.041110732 0.012192864
-0.023601525 -0.041190006 0.014024518
-0.02176987 -0.041999288 0.014024518
-0.025403034 -0.040466659 0.015856173
-0.023601525 -0.041334592 0.015856173
-0.02176987 -0.042121522 0.015856173
-0.025743481 -0.040466659 0.017687827
-0.025433179 -0.04062593 0.017687827
-0.025433179 -0.040466659 0.016013294
-0.026052695 -0.040466659 0.019519482
-0.025433179 -0.040778048 0.019519482
-0.023601525 -0.041480005 0.017687827
-0.02176987 -0.042226445 0.017687827
-0.023601525 -0.041576993 0.019519482
-0.02176987 -0.042263299 0.019519482
-0.03113633 -0.036803354 0.014024518
-0.030928139 -0.036944024 0.014024518
-0.030928139 -0.036803354 0.012569565
-0.029096484 -0.038127244 0.014024518
-0.031364322 -0.036803354 0.015856173
-0.030928139 -0.037100911 0.015856173
-0.029096484 -0.03829363 0.015856173
-0.033275571 -0.034971699 0.012192864
-0.03351263 -0.034971699 0.014024518
-0.032759793 -0.035602517 0.014024518
-0.035353802 -0.033140045 0.014024518
-0.034591448 -0.033704091 0.012192864
-0.034591448 -0.033941656 0.014024518
-0.033696599 -0.034971699 0.015856173
-0.032759793 -0.035760015 0.015856173
-0.035594113 -0.033140045 0.015856173
-0.034591448 -0.034141399 0.015856173
-0.030928139 -0.036767386 0.012192864
-0.03153082 -0.036803354 0.017687827
-0.030928139 -0.037227258 0.017687827
-0.029096484 -0.038452066 0.017687827
-0.031629805 -0.036803354 0.019519482
-0.030928139 -0.037311949 0.019519482
-0.029096484 -0.038585968 0.019519482
-0.033846337 -0.034971699 0.017687827
-0.032759793 -0.035873935 0.017687827
-0.03577967 -0.033140045 0.017687827
-0.034591448 -0.034297906 0.017687827
-0.0339473 -0.034971699 0.019519482
-0.032759793 -0.035943829 0.019519482
-0.035888288 -0.033140045 0.019519482
-0.034591448 -0.034400553 0.019519482
-0.028073642 -0.038635008 0.012192864
-0.028250534 -0.038635008 0.014024518
-0.027264833 -0.039142352 0.012192864
-0.027264833 -0.03922189 0.014024518
-0.025433179 -0.040278405 0.014024518
-0.028537881 -0.038635008 0.015856173
-0.027264833 -0.039408121 0.015856173
-0.025433179 -0.040451132 0.015856173
-0.028804239 -0.038635008 0.017687827
-0.027264833 -0.039591689 0.017687827
-0.029021505 -0.038635008 0.019519482
-0.027264833 -0.039766781 0.019519482
-0.022278216 -0.033140045 0.017687827
-0.02176987 -0.033435643 0.017687827
-0.02176987 -0.033140045 0.016945045
-0.023313962 -0.033140045 0.019519482
-0.02176987 -0.034045912 0.019519482
-0.026320603 -0.040466659 0.021351133
-0.025433179 -0.04089804 0.021351133
-0.026546717 -0.040466659 0.023182787
-0.025433179 -0.040997431 0.023182787
-0.023601525 -0.041624211 0.021351133
-0.02176987 -0.042236969 0.021351133
-0.023601525 -0.041668616 0.023182787
-0.02176987 -0.042218193 0.023182787
-0.026695635 -0.040466659 0.025014441
-0.025433179 -0.041084446 0.025014441
-0.026713487 -0.040466659 0.026846096
-0.025433179 -0.041110031 0.026846096
-0.023601525 -0.041762091 0.025014441
-0.02176987 -0.042289015 0.025014441
-0.022179522 -0.042298317 0.026846096
-0.02176987 -0.042418242 0.026846096
-0.02176987 -0.042298317 0.025148395
-0.023601525 -0.041847363 0.026846096
-0.029165242 -0.038635008 0.021351133
-0.029096484 -0.038683422 0.021351133
-0.029096484 -0.038635008 0.020352025
-0.031639989 -0.036803354 0.021351133
-0.030928139 -0.037335224 0.021351133
-0.029250368 -0.038635008 0.023182787
-0.029096484 -0.038752198 0.023182787
-0.031581569 -0.036803354 0.023182787
-0.030928139 -0.037310816 0.023182787
-0.033975132 -0.034971699 0.021351133
-0.032759793 -0.03595214 0.021351133
-0.035893787 -0.033140045 0.021351133
-0.034591448 -0.034428988 0.021351133
-0.033895399 -0.034971699 0.023182787
-0.032759793 -0.035892941 0.023182787
-0.035772182 -0.033140045 0.023182787
-0.034591448 -0.034344904 0.023182787
-0.029322062 -0.038635008 0.025014441
-0.029096484 -0.038812123 0.025014441
-0.031542607 -0.036803354 0.025014441
-0.030928139 -0.037310626 0.025014441
-0.029424708 -0.038635008 0.026846096
-0.029096484 -0.038882431 0.026846096
-0.031616077 -0.036803354 0.026846096
-0.030928139 -0.037399478 0.026846096
-0.033726532 -0.034971699 0.025014441
-0.032759793 -0.035797708 0.025014441
-0.035570808 -0.033140045 0.025014441
-0.034591448 -0.034158856 0.025014441
-0.033671774 -0.034971699 0.026846096
-0.032759793 -0.035793748 0.026846096
-0.035512619 -0.033140045 0.026846096
-0.034591448 -0.034088105 0.026846096
-0.027264833 -0.039921638 0.021351133
-0.027264833 -0.040049881 0.023182787
-0.024013218 -0.033140045 0.021351133
-0.023601525 -0.033398382 0.021351133
-0.023601525 -0.033140045 0.020165417
-0.02176987 -0.034455344 0.021351133
-0.024356443 -0.033140045 0.023182787
-0.023601525 -0.033603743 0.023182787
-0.02176987 -0.034633227 0.023182787
-0.027264833 -0.040131047 0.025014441
-0.027264833 -0.040146172 0.026846096
-0.024394725 -0.033140045 0.025014441
-0.023601525 -0.033613481 0.025014441
-0.02176987 -0.034598831 0.025014441
-0.024234552 -0.033140045 0.026846096
-0.023601525 -0.03349822 0.026846096
-0.02176987 -0.034447312 0.026846096
-0.015560109 -0.044129968 0.014024518
-0.014443256 -0.044362068 0.014024518
-0.016406197 -0.044129968 0.015856173
-0.016274907 -0.044165544 0.015856173
-0.016274907 -0.044129968 0.015500259
-0.014443256 -0.044596799 0.015856173
-0.020869993 -0.042298317 0.012192864
-0.021025863 -0.042298317 0.014024518
-0.019938216 -0.042654827 0.012192864
-0.019938216 -0.042725682 0.014024518
-0.018106561 -0.043411285 0.014024518
-0.021332372 -0.042298317 0.015856173
-0.019938216 -0.042869728 0.015856173
-0.018106561 -0.043592192 0.015856173
-0.016274907 -0.043777585 0.012192864
-0.016274907 -0.043955207 0.014024518
-0.016829085 -0.044129968 0.017687827
-0.016274907 -0.04429289 0.017687827
-0.014443256 -0.044764906 0.017687827
-0.016798243 -0.044129968 0.019519482
-0.016274907 -0.044283703 0.019519482
-0.014443256 -0.044768132 0.019519482
-0.021584239 -0.042298317 0.017687827
-0.019938216 -0.042964775 0.017687827
-0.018106561 -0.043699119 0.017687827
-0.021673251 -0.042298317 0.019519482
-0.019938216 -0.042972486 0.019519482
-0.018106561 -0.043694343 0.019519482
-0.010779947 -0.04509154 0.015856173
-0.012611602 -0.044907607 0.015856173
-0.012611602 -0.045145191 0.017687827
-0.010779947 -0.045371197 0.017687827
-0.012611602 -0.045166202 0.019519482
-0.010779947 -0.04541041 0.019519482
-0.0089482926 -0.045120522 0.015856173
-0.0089482926 -0.045398436 0.017687827
-0.0089482926 -0.045453265 0.019519482
-0.019097351 -0.033140045 0.014024518
-0.018106561 -0.033508815 0.014024518
-0.018106561 -0.033140045 0.013435826
-0.020947881 -0.033140045 0.015856173
-0.019938216 -0.033635762 0.015856173
-0.019938216 -0.033140045 0.014727324
-0.018106561 -0.034371801 0.015856173
-0.016274907 -0.034098636 0.014024518
-0.016274907 -0.033140045 0.012678552
-0.014443256 -0.03459711 0.014024518
-0.016079221 -0.034971699 0.015856173
-0.014443256 -0.035356931 0.015856173
-0.014443256 -0.034971699 0.014853429
-0.016274907 -0.034921281 0.015856173
-0.018399913 -0.034971699 0.017687827
-0.018106561 -0.035069697 0.017687827
-0.018106561 -0.034971699 0.017422471
-0.019938216 -0.034369551 0.017687827
-0.019927651 -0.034971699 0.019519482
-0.018106561 -0.035691492 0.019519482
-0.019938216 -0.034966931 0.019519482
-0.016274907 -0.035606004 0.017687827
-0.016274907 -0.034971699 0.015988231
-0.014443256 -0.036024004 0.017687827
-0.016274907 -0.036229447 0.019519482
-0.014443256 -0.036612406 0.019519482
-0.012721818 -0.034971699 0.014024518
-0.012611602 -0.034992456 0.014024518
-0.012611602 -0.034971699 0.013981631
-0.010779947 -0.035265677 0.014024518
-0.010779947 -0.034971699 0.013515983
-0.012611602 -0.035731606 0.015856173
-0.010779947 -0.036027566 0.015856173
-0.0089482926 -0.035401348 0.014024518
-0.0089482926 -0.034971699 0.013371969
-0.0089482926 -0.036196966 0.015856173
-0.013248466 -0.036803354 0.019519482
-0.012611602 -0.03689111 0.019519482
-0.012611602 -0.036803354 0.01918212
-0.010779947 -0.037053511 0.019519482
-0.010779947 -0.036803354 0.018376667
-0.0089482926 -0.037102006 0.019519482
-0.0089482926 -0.036803354 0.017877098
-0.012611602 -0.036359593 0.017687827
-0.010779947 -0.036611997 0.017687827
-0.0089482926 -0.036752138 0.017687827
-0.016274907 -0.044129968 0.021285851
-0.016243778 -0.044129968 0.021351133
-0.014443256 -0.044570118 0.021351133
-0.015358698 -0.044129968 0.023182787
-0.014443256 -0.044300206 0.023182787
-0.02158333 -0.042298317 0.021351133
-0.019938216 -0.042888038 0.021351133
-0.018106561 -0.043567397 0.021351133
-0.021498963 -0.042298317 0.023182787
-0.019938216 -0.042806938 0.023182787
-0.018106561 -0.04343234 0.023182787
-0.016274907 -0.044121817 0.021351133
-0.016274907 -0.043934777 0.023182787
-0.014992215 -0.044129968 0.025014441
-0.014443256 -0.044198133 0.025014441
-0.01621994 -0.044129968 0.026846096
-0.014443256 -0.044350803 0.026846096
-0.021735962 -0.042298317 0.025014441
-0.019938216 -0.042851068 0.025014441
-0.018106561 -0.04345955 0.025014441
-0.019938216 -0.043018304 0.026846096
-0.018106561 -0.043663546 0.026846096
-0.016274907 -0.043921754 0.025014441
-0.016274907 -0.044120759 0.026846096
-0.012611602 -0.044946216 0.021351133
-0.010779947 -0.0452017 0.021351133
-0.012611602 -0.044592075 0.023182787
-0.010779947 -0.044833846 0.023182787
-0.0089482926 -0.045302436 0.021351133
-0.0089482926 -0.045025051 0.023182787
-0.012611602 -0.044390522 0.025014441
-0.010779947 -0.04459025 0.025014441
-0.012611602 -0.044485688 0.026846096
-0.010779947 -0.044638555 0.026846096
-0.0089482926 -0.044821214 0.025014441
-0.0089482926 -0.044834901 0.026846096
-0.01572369 -0.036803354 0.021351133
-0.014443256 -0.037030183 0.021351133
-0.014443256 -0.036803354 0.020254977
-0.016580101 -0.036803354 0.023182787
-0.016274907 -0.036877073 0.023182787
-0.016274907 -0.036803354 0.022147652
-0.014443256 -0.037223633 0.023182787
-0.018106561 -0.036364309 0.023182787
-0.016274907 -0.036803354 0.024841294
-0.016186547 -0.036803354 0.025014441
-0.014443256 -0.037117146 0.025014441
-0.014443256 -0.036803354 0.026740123
-0.018106561 -0.03596434 0.026846096
-0.014443256 -0.036780741 0.026846096
-0.012611602 -0.03727603 0.021351133
-0.010779947 -0.037335061 0.021351133
-0.012611602 -0.037438788 0.023182787
-0.010779947 -0.03743878 0.023182787
-0.012611602 -0.037316158 0.025014441
-0.010779947 -0.037300348 0.025014441
-0.014246397 -0.036803354 0.026846096
-0.012611602 -0.036965907 0.026846096
-0.010779947 -0.036975749 0.026846096
-0.026614852 -0.040466659 0.02867775
-0.025433179 -0.041055813 0.02867775
-0.026537973 -0.040466659 0.030509405
-0.025433179 -0.041014448 0.030509405
-0.022438705 -0.042298317 0.02867775
-0.02176987 -0.042534441 0.02867775
-0.023601525 -0.041861765 0.02867775
-0.022558197 -0.042298317 0.030509405
-0.02176987 -0.042619422 0.030509405
-0.023601525 -0.041860856 0.030509405
-0.026616696 -0.040466659 0.032341059
-0.025433179 -0.041056968 0.032341059
-0.02681569 -0.040466659 0.03417271
-0.025433179 -0.041163087 0.03417271
-0.02265941 -0.042298317 0.032341059
-0.02176987 -0.042674348 0.032341059
-0.023601525 -0.041898288 0.032341059
-0.022835199 -0.042298317 0.03417271
-0.02176987 -0.042744506 0.03417271
-0.023601525 -0.041981354 0.03417271
-0.029553078 -0.038635008 0.02867775
-0.029096484 -0.03895016 0.02867775
-0.03182292 -0.036803354 0.02867775
-0.030928139 -0.037567161 0.02867775
-0.02962875 -0.038635008 0.030509405
-0.029096484 -0.038979962 0.030509405
-0.032026894 -0.036803354 0.030509405
-0.030928139 -0.037689075 0.030509405
-0.033879962 -0.034971699 0.02867775
-0.032759793 -0.035978332 0.02867775
-0.035763301 -0.033140045 0.02867775
-0.034591448 -0.034301966 0.02867775
-0.034150891 -0.034971699 0.030509405
-0.032759793 -0.036186982 0.030509405
-0.036093965 -0.033140045 0.030509405
-0.034591448 -0.034570038 0.030509405
-0.029641796 -0.038635008 0.032341059
-0.029096484 -0.038994495 0.032341059
-0.032073896 -0.036803354 0.032341059
-0.030928139 -0.037701711 0.032341059
-0.029709172 -0.038635008 0.03417271
-0.029096484 -0.039058015 0.03417271
-0.032065831 -0.036803354 0.03417271
-0.030928139 -0.03771688 0.03417271
-0.034262825 -0.034971699 0.032341059
-0.032759793 -0.036246963 0.032341059
-0.036253929 -0.033140045 0.032341059
-0.034591448 -0.034679912 0.032341059
-0.034260269 -0.034971699 0.03417271
-0.032759793 -0.036235832 0.03417271
-0.036262561 -0.033140045 0.03417271
-0.034591448 -0.034681909 0.03417271
-0.027264833 -0.040108502 0.02867775
-0.027264833 -0.040077604 0.030509405
-0.023926586 -0.033140045 0.02867775
-0.023601525 -0.033317901 0.02867775
-0.02176987 -0.034250356 0.02867775
-0.023601525 -0.033140045 0.030241162
-0.023543201 -0.033140045 0.030509405
-0.02176987 -0.034042817 0.030509405
-0.027264833 -0.040114097 0.032341059
-0.027264833 -0.040216282 0.03417271
-0.023218915 -0.033140045 0.032341059
-0.02176987 -0.033880185 0.032341059
-0.023070309 -0.033140045 0.03417271
-0.02176987 -0.03381836 0.03417271
-0.026934102 -0.040466659 0.036004364
-0.025433179 -0.041248385 0.036004364
-0.026816554 -0.040466659 0.037836019
-0.025433179 -0.041235395 0.037836019
-0.023103602 -0.042298317 0.036004364
-0.02176987 -0.042855553 0.036004364
-0.023601525 -0.042089488 0.036004364
-0.023275133 -0.042298317 0.037836019
-0.02176987 -0.042939737 0.037836019
-0.023601525 -0.042152412 0.037836019
-0.026515182 -0.040466659 0.039667673
-0.025433179 -0.041125022 0.039667673
-0.02327368 -0.042298317 0.039667673
-0.02176987 -0.042962305 0.039667673
-0.023601525 -0.042140268 0.039667673
-0.029811237 -0.038635008 0.036004364
-0.029096484 -0.039125763 0.036004364
-0.032118607 -0.036803354 0.036004364
-0.030928139 -0.037791632 0.036004364
-0.029722944 -0.038635008 0.037836019
-0.029096484 -0.039051458 0.037836019
-0.032057632 -0.036803354 0.037836019
-0.030928139 -0.03774415 0.037836019
-0.034227747 -0.034971699 0.036004364
-0.032759793 -0.036250211 0.036004364
-0.036200754 -0.033140045 0.036004364
-0.034591448 -0.034651071 0.036004364
-0.034132376 -0.034971699 0.037836019
-0.032759793 -0.036184482 0.037836019
-0.036086295 -0.033140045 0.037836019
-0.034591448 -0.034565251 0.037836019
-0.029310159 -0.038635008 0.039667673
-0.029096484 -0.038777556 0.039667673
-0.031730793 -0.036803354 0.039667673
-0.030928139 -0.037446212 0.039667673
-0.029096484 -0.038635008 0.040365741
-0.033872455 -0.034971699 0.039667673
-0.032759793 -0.035936259 0.039667673
