# .PCD v0.7 - Point Cloud Data file format
VERSION 0.7
FIELDS x y z
SIZE 4 4 4
TYPE F F F
COUNT 1 1 1
WIDTH 1288
HEIGHT 1
VIEWPOINT 0 0 0 1 0 0 0
POINTS 1288
DATA ascii
-0.022040285 0.0068301558 0.030143697
-0.021533128 0.0092360005 0.030143697
-0.020984922 0.011641849 0.027737848
-0.020707112 0.012443244 0.027737848
-0.020082468 0.014047693 0.027737848
-0.020839356 0.011641849 0.030143697
-0.020707112 0.012066886 0.030143697
-0.020078791 0.014047693 0.030143697
-0.02186387 0.0068301558 0.032549541
-0.021390112 0.0092360005 0.032549541
-0.020749196 0.011641849 0.032549541
-0.020707112 0.011797424 0.032549541
-0.020092422 0.014047693 0.032549541
-0.020707112 0.011641849 0.033367705
-0.018928204 0.016453538 0.027737848
-0.018301267 0.017521247 0.027737848
-0.019130172 0.016453538 0.030143697
-0.018301267 0.017907262 0.030143697
-0.019175908 0.016453538 0.032549541
-0.018301267 0.017908309 0.032549541
-0.017471846 0.018859386 0.018114466
-0.017442087 0.018859386 0.020520313
-0.015895423 0.02062593 0.018114466
-0.01524866 0.021265231 0.018114466
-0.013489576 0.022819098 0.018114466
-0.015895423 0.020651102 0.020520313
-0.015266053 0.021265231 0.020520313
-0.013489576 0.022828739 0.020520313
-0.012334632 0.023671076 0.018114466
-0.012382187 0.023671076 0.020520313
-0.017342066 0.018859386 0.022926159
-0.017245514 0.018859386 0.025332004
-0.015895423 0.020595003 0.022926159
-0.015224719 0.021265231 0.022926159
-0.013489576 0.022802498 0.022926159
-0.015895423 0.020488899 0.025332004
-0.015153812 0.021265231 0.025332004
-0.013489576 0.022786297 0.025332004
-0.012363946 0.023671076 0.022926159
-0.012353418 0.023671076 0.025332004
-0.017331226 0.018859386 0.027737848
-0.017562227 0.018859386 0.030143697
-0.015895423 0.020512138 0.027737848
-0.015163088 0.021265231 0.027737848
-0.013489576 0.022779163 0.027737848
-0.015895423 0.020608693 0.030143697
-0.01518436 0.021265231 0.030143697
-0.013489576 0.022658657 0.030143697
-0.012296554 0.023671076 0.027737848
-0.011974629 0.023671076 0.030143697
-0.017534927 0.018859386 0.032549541
-0.015895423 0.020525485 0.032549541
-0.015047047 0.021265231 0.032549541
-0.013489576 0.022470683 0.032549541
-0.011580361 0.023671076 0.032549541
-0.01108373 0.024465036 0.018114466
-0.0086778849 0.025795147 0.018114466
-0.01108373 0.024526246 0.020520313
-0.0086778849 0.025794774 0.020520313
-0.01108373 0.024540674 0.022926159
-0.0086778849 0.02579806 0.022926159
-0.01108373 0.024524894 0.025332004
-0.0086778849 0.025758449 0.025332004
-0.0080542918 0.02607692 0.018114466
-0.0062720403 0.026742209 0.018114466
-0.003866192 0.027379755 0.018114466
-0.0079623647 0.02607692 0.020520313
-0.0062720403 0.026638411 0.020520313
-0.003866192 0.027277444 0.020520313
-0.0014603473 0.027792435 0.018114466
-0.0014603473 0.027729191 0.020520313
-0.007913813 0.02607692 0.022926159
-0.0062720403 0.026575159 0.022926159
-0.003866192 0.027212508 0.022926159
-0.0077794734 0.02607692 0.025332004
-0.0062720403 0.026513107 0.025332004
-0.003866192 0.027133871 0.025332004
-0.0014603473 0.027682412 0.022926159
-0.0014603473 0.027564362 0.025332004
-0.01108373 0.024406649 0.027737848
-0.0086778849 0.025489714 0.027737848
-0.01108373 0.024145991 0.030143697
-0.0086778849 0.02511115 0.030143697
-0.01108373 0.023927171 0.032549541
-0.0086778849 0.024921209 0.032549541
-0.0067602731 0.02607692 0.027737848
-0.0062720403 0.026202157 0.027737848
-0.003866192 0.026801232 0.027737848
-0.0062720403 0.025779471 0.030143697
-0.0062720403 0.02607692 0.028383009
-0.0050615892 0.02607692 0.030143697
-0.003866192 0.026376966 0.030143697
-0.0014603473 0.027233273 0.027737848
-0.0014603473 0.026898157 0.030143697
-0.0062720403 0.025613304 0.032549541
-0.0044101998 0.02607692 0.032549541
-0.003866192 0.026210349 0.032549541
-0.0014603473 0.026712835 0.032549541
-0.021605901 0.0068301558 0.037361231
-0.021235391 0.0092360005 0.037361231
-0.021769777 0.0068301558 0.039767075
-0.02136712 0.0092360005 0.039767075
-0.020707112 0.011048719 0.037361231
-0.02051265 0.011641849 0.037361231
-0.019697407 0.014047693 0.037361231
-0.020707112 0.01103038 0.039767075
-0.020455562 0.011641849 0.039767075
-0.019469639 0.014047693 0.039767075
-0.021969918 0.0068301558 0.042172924
-0.021470385 0.0092360005 0.042172924
-0.021917243 0.0068301558 0.044578768
-0.021349249 0.0092360005 0.044578768
-0.020707112 0.011110231 0.042172924
-0.020473963 0.011641849 0.042172924
-0.019440163 0.014047693 0.042172924
-0.020707112 0.011084605 0.044578768
-0.020500515 0.011641849 0.044578768
-0.019571897 0.014047693 0.044578768
-0.018549053 0.016453538 0.037361231
-0.018301267 0.016855247 0.037361231
-0.018301267 0.016316634 0.039767075
-0.018301267 0.016453538 0.039117444
-0.018301267 0.016309023 0.042172924
-0.018429348 0.016453538 0.044578768
-0.018301267 0.016453538 0.042924237
-0.018301267 0.016688164 0.044578768
-0.021633871 0.0068301558 0.046984613
-0.021006398 0.0092360005 0.046984613
-0.021449726 0.0068301558 0.049390461
-0.020800874 0.0092360005 0.049390461
-0.020707112 0.010283187 0.046984613
-0.020301336 0.011641849 0.046984613
-0.019514957 0.014047693 0.046984613
-0.020707112 0.0095687322 0.049390461
-0.020118045 0.011641849 0.049390461
-0.019385524 0.014047693 0.049390461
-0.02155664 0.0068301558 0.051796306
-0.020993827 0.0092360005 0.051796306
-0.021874113 0.0068301558 0.054202151
-0.02144995 0.0092360005 0.054202151
-0.020707112 0.010239027 0.051796306
-0.020260265 0.011641849 0.051796306
-0.019381989 0.014047693 0.051796306
-0.020707112 0.011458337 0.054202151
-0.02062979 0.011641849 0.054202151
-0.019507946 0.014047693 0.054202151
-0.018471709 0.016453538 0.046984613
-0.018301267 0.016775452 0.046984613
-0.018385272 0.016453538 0.049390461
-0.018301267 0.016618781 0.049390461
-0.018301267 0.016342986 0.051796306
-0.018301267 0.016453538 0.050911017
-0.018301267 0.016151011 0.054202151
-0.016874995 0.018859386 0.037361231
-0.018219201 0.016453538 0.039767075
-0.016631443 0.018859386 0.039767075
-0.015895423 0.020083711 0.037361231
-0.014794998 0.021265231 0.037361231
-0.013489576 0.022433456 0.037361231
-0.015895423 0.019867521 0.039767075
-0.014671717 0.021265231 0.039767075
-0.013489576 0.022351544 0.039767075
-0.011693247 0.023671076 0.037361231
-0.01157462 0.023671076 0.039767075
-0.01822122 0.016453538 0.042172924
-0.016676467 0.018859386 0.042172924
-0.016818006 0.018859386 0.044578768
-0.015895423 0.019835226 0.042172924
-0.014473177 0.021265231 0.042172924
-0.013489576 0.02208231 0.042172924
-0.015895423 0.019855481 0.044578768
-0.014256349 0.021265231 0.044578768
-0.013489576 0.021810286 0.044578768
-0.01108373 0.023617305 0.042172924
-0.01108373 0.023671076 0.041873559
-0.010976106 0.023671076 0.042172924
-0.01108373 0.023221258 0.044578768
-0.010200929 0.023671076 0.044578768
-0.016836338 0.018859386 0.046984613
-0.016756941 0.018859386 0.049390461
-0.015895423 0.019801885 0.046984613
-0.014060982 0.021265231 0.046984613
-0.013489576 0.021642163 0.046984613
-0.015895423 0.019694209 0.049390461
-0.013854615 0.021265231 0.049390461
-0.013489576 0.021511052 0.049390461
-0.01108373 0.023044754 0.046984613
-0.0099312905 0.023671076 0.046984613
-0.01108373 0.023040205 0.049390461
-0.010030529 0.023671076 0.049390461
-0.018239679 0.016453538 0.051796306
-0.016510624 0.018859386 0.051796306
-0.018098781 0.016453538 0.054202151
-0.016170118 0.018859386 0.054202151
-0.015895423 0.019466307 0.051796306
-0.013614729 0.021265231 0.051796306
-0.013489576 0.021354873 0.051796306
-0.015895423 0.019143362 0.054202151
-0.013489576 0.021236308 0.054202151
-0.013489576 0.021265231 0.05339038
-0.01108373 0.023034766 0.051796306
-0.010108184 0.023671076 0.051796306
-0.013453009 0.021265231 0.054202151
-0.01108373 0.02304868 0.054202151
-0.010150339 0.023671076 0.054202151
-0.01108373 0.023989853 0.037361231
-0.0086778849 0.024906091 0.037361231
-0.01108373 0.023925725 0.039767075
-0.0086778849 0.02489366 0.039767075
-0.0086778849 0.024755083 0.042172924
-0.0086778849 0.024467591 0.044578768
-0.0062720403 0.025574468 0.037361231
-0.0043277256 0.02607692 0.037361231
-0.003866192 0.026182454 0.037361231
-0.0062720403 0.025657546 0.039767075
-0.0048557594 0.02607692 0.039767075
-0.003866192 0.026334058 0.039767075
-0.0014603473 0.026540238 0.037361231
-0.0014603473 0.026760232 0.039767075
-0.0062720403 0.025754862 0.042172924
-0.0053851642 0.02607692 0.042172924
-0.003866192 0.026534975 0.042172924
-0.0062720403 0.025617443 0.044578768
-0.0050948747 0.02607692 0.044578768
-0.003866192 0.026472803 0.044578768
-0.0014603473 0.026987661 0.042172924
-0.0014603473 0.026945662 0.044578768
-0.0086778849 0.024343815 0.046984613
-0.0086778849 0.024456386 0.049390461
-0.0086778849 0.024562746 0.051796306
-0.0086778849 0.024565805 0.054202151
-0.0062720403 0.025489386 0.046984613
-0.0047610328 0.02607692 0.046984613
-0.003866192 0.026372962 0.046984613
-0.0062720403 0.025687207 0.049390461
-0.0053075738 0.02607692 0.049390461
-0.003866192 0.026497621 0.049390461
-0.0014603473 0.026842996 0.046984613
-0.0014603473 0.026813257 0.049390461
-0.0062720403 0.025847312 0.051796306
-0.005703494 0.02607692 0.051796306
-0.003866192 0.026516926 0.051796306
-0.0062720403 0.02580503 0.054202151
-0.0055421293 0.02607692 0.054202151
-0.003866192 0.026408829 0.054202151
-0.0014603473 0.026679475 0.051796306
-0.0014603473 0.026500944 0.054202151
-0.022207037 0.0068301558 0.056607995
-0.021858165 0.0092360005 0.056607995
-0.022466194 0.0068301558 0.05901384
-0.022083994 0.0092360005 0.05901384
-0.020974202 0.011641849 0.056607995
-0.020707112 0.011641849 0.054680154
-0.020707112 0.01218668 0.056607995
-0.019718576 0.014047693 0.056607995
-0.021259831 0.011641849 0.05901384
-0.020707112 0.012816761 0.05901384
-0.02004813 0.014047693 0.05901384
-0.023190798 0.0068301558 0.063825533
-0.023112958 0.0068301558 0.06293878
-0.023112958 0.0072738677 0.063825533
-0.022819102 0.0068301558 0.061419684
-0.022371616 0.0092360005 0.061419684
-0.022721697 0.0092360005 0.063825533
-0.021689691 0.011641849 0.061419684
-0.020707112 0.013890591 0.061419684
-0.020623425 0.014047693 0.061419684
-0.022087127 0.011641849 0.063825533
-0.021088809 0.014047693 0.063825533
-0.020707112 0.014047693 0.061686892
-0.018301267 0.016169865 0.056607995
-0.018340185 0.016453538 0.05901384
-0.018301267 0.016453538 0.058818597
-0.018301267 0.016499545 0.05901384
-0.018992566 0.016453538 0.061419684
-0.018301267 0.017272823 0.061419684
-0.020707112 0.014737513 0.063825533
-0.019528348 0.016453538 0.063825533
-0.018301267 0.017881531 0.063825533
-0.023112958 0.0068301558 0.06473057
-0.022305293 0.0068301558 0.066231385
-0.021799905 0.0092360005 0.066231385
-0.020707112 0.0068301558 0.067506447
-0.018301267 0.0058131181 0.068637222
-0.018301267 0.0068301558 0.068582088
-0.020707112 0.0092360005 0.067143098
-0.018301267 0.0092360005 0.068342105
-0.02102771 0.011641849 0.066231385
-0.020707112 0.012413274 0.066231385
-0.020707112 0.014047693 0.065248579
-0.019864105 0.014047693 0.066231385
-0.020707112 0.011641849 0.066514954
-0.018301267 0.011641849 0.067927331
-0.018301267 0.014047693 0.06725961
-0.018301267 0.016240533 0.066231385
-0.018301267 0.016453538 0.066092446
-0.018076744 0.016453538 0.056607995
-0.015947212 0.018859386 0.056607995
-0.01609079 0.018859386 0.05901384
-0.015895423 0.018913679 0.056607995
-0.013489576 0.021186464 0.056607995
-0.015895423 0.019056428 0.05901384
-0.013538552 0.021265231 0.05901384
-0.013489576 0.021265231 0.058635727
-0.013489576 0.021307357 0.05901384
-0.013397759 0.021265231 0.056607995
-0.01108373 0.02306911 0.056607995
-0.010173051 0.023671076 0.056607995
-0.01108373 0.023171376 0.05901384
-0.010323487 0.023671076 0.05901384
-0.016785674 0.018859386 0.061419684
-0.017348178 0.018859386 0.063825533
-0.015895423 0.019720394 0.061419684
-0.014157562 0.021265231 0.061419684
-0.013489576 0.021814462 0.061419684
-0.015895423 0.02024148 0.063825533
-0.014727877 0.021265231 0.063825533
-0.013489576 0.02227604 0.063825533
-0.01108373 0.023598939 0.061419684
-0.010972489 0.023671076 0.061419684
-0.011598988 0.023671076 0.063825533
-0.01108373 0.023671076 0.06166191
-0.018126167 0.0068301558 0.068637222
-0.017386291 0.0092360005 0.068637222
-0.016140724 0.011641849 0.068637222
-0.015895423 0.012013156 0.068637222
-0.015895423 0.014047693 0.068214402
-0.01429035 0.014047693 0.068637222
-0.013489576 0.0092360005 0.069446951
-0.0086778849 0.0092360005 0.069925413
-0.013489576 0.014047693 0.068804353
-0.0086778849 0.014047693 0.069423243
-0.018120533 0.016453538 0.066231385
-0.015895423 0.018778585 0.066231385
-0.015895423 0.018859386 0.066171646
-0.015811618 0.018859386 0.066231385
-0.015895423 0.016453538 0.067465201
-0.013489576 0.014869686 0.068637222
-0.013489576 0.016453538 0.068248734
-0.013489576 0.018859386 0.067408934
-0.011631213 0.016453538 0.068637222
-0.01108373 0.016849585 0.068637222
-0.01108373 0.018859386 0.06808494
-0.0086778849 0.018256888 0.068637222
-0.0086778849 0.018859386 0.068483666
-0.013489576 0.020887118 0.066231385
-0.013489576 0.021265231 0.065911159
-0.012999387 0.021265231 0.066231385
-0.01108373 0.022587001 0.066231385
-0.01108373 0.023671076 0.065002605
-0.0090891495 0.023671076 0.066231385
-0.01108373 0.021265231 0.067078829
-0.0086778849 0.021265231 0.067687094
-0.0086778849 0.023671076 0.06637089
-0.0072054826 0.018859386 0.068637222
-0.0062720403 0.019146692 0.068637222
-0.0062720403 0.021265231 0.068014279
-0.003866192 0.019572541 0.068637222
-0.003866192 0.021265231 0.068165213
-0.0062720403 0.023671076 0.066930056
-0.003866192 0.023671076 0.067193821
-0.0014603473 0.019610655 0.068637222
-0.0014603473 0.021265231 0.068193406
-0.0014603473 0.023671076 0.067269653
-0.003866192 0.014047693 0.069619626
-0.003866192 0.018859386 0.068803892
-0.0086778849 0.024567999 0.056607995
-0.0086778849 0.024653178 0.05901384
-0.0086778849 0.024973143 0.061419684
-0.01108373 0.024001632 0.063825533
-0.0086778849 0.025234975 0.063825533
-0.0062720403 0.025767136 0.056607995
-0.0053529963 0.02607692 0.056607995
-0.003866192 0.026349477 0.056607995
-0.0062720403 0.025733832 0.05901384
-0.0050352141 0.02607692 0.05901384
-0.003866192 0.026295725 0.05901384
-0.0014603473 0.026415508 0.056607995
-0.0014603473 0.026472714 0.05901384
-0.0062720403 0.02586823 0.061419684
-0.0054511242 0.02607692 0.061419684
-0.003866192 0.026417982 0.061419684
-0.0062720403 0.026018679 0.063825533
-0.0060398616 0.02607692 0.063825533
-0.003866192 0.026526228 0.063825533
-0.0014603473 0.02672651 0.061419684
-0.0014603473 0.026780698 0.063825533
-0.0086778849 0.023853146 0.066231385
-0.0062720403 0.024674062 0.066231385
-0.003866192 0.025136881 0.066231385
-0.003866192 0.02607692 0.065157965
-0.0014603473 0.025297415 0.066231385
-0.0014603473 0.02607692 0.065425619
0.0033513419 -0.014826356 0.0084910849
0.0033513419 -0.014822453 0.0084894309
0.0033584125 -0.014822453 0.0084910849
0.0033513419 -0.017352926 0.01089693
0.0033513419 -0.017228298 0.010685625
0.0039264634 -0.017228298 0.01089693
0.0057571866 -0.016800441 0.01089693
0.0057571866 -0.014822453 0.0090262005
0.0081630349 -0.016175006 0.01089693
0.0081630349 -0.014822453 0.0095738424
0.01056888 -0.015383342 0.01089693
0.01056888 -0.014822453 0.010311243
0.0033513419 -0.018383209 0.013302777
0.0057571866 -0.017939497 0.013302777
0.0057571866 -0.017228298 0.011623348
0.0033513419 -0.019015256 0.015708622
0.0057571866 -0.018616671 0.015708622
0.0081630349 -0.017417274 0.013302777
0.0081630349 -0.017228298 0.012808923
0.0089586936 -0.017228298 0.013302777
0.01056888 -0.016786234 0.013302777
0.0081630349 -0.018115636 0.015708622
0.01056888 -0.017503528 0.015708622
0.01056888 -0.017228298 0.014626976
0.011919156 -0.014822453 0.01089693
0.012974724 -0.015871929 0.013302777
0.012974724 -0.014822453 0.011501675
0.014988981 -0.014822453 0.013302777
0.01147515 -0.017228298 0.015708622
0.012974724 -0.016663516 0.015708622
0.015380573 -0.015385168 0.015708622
0.015380573 -0.014822453 0.013842044
0.016231149 -0.014822453 0.015708622
0.0033513419 -0.004222149 0.0060852394
0.0033513419 -0.0027932264 0.0059492057
0.0045475625 -0.0027932264 0.0060852394
0.0033513419 -0.00038737804 0.0059727263
0.0044506229 -0.00038737804 0.0060852394
0.0015791245 0.0020184666 0.0060852394
0.0033513419 0.0010629222 0.0060852394
0.0033513419 -0.012416609 0.0078798188
0.0057571866 -0.013573991 0.0084910849
0.0057571866 -0.012416609 0.0081917895
0.0033513419 -0.010010762 0.0074566035
0.0057571866 -0.010010762 0.0076609263
0.0079360045 -0.012416609 0.0084910849
0.0081630349 -0.012277957 0.0084910849
0.0081630349 -0.010010762 0.0079751518
0.01056888 -0.010988859 0.0084910849
0.01056888 -0.010010762 0.0082520172
0.0081630349 -0.012416609 0.0085236225
0.01056888 -0.012416609 0.0089100385
0.0033513419 -0.0076049156 0.0068491884
0.0057571866 -0.0076049156 0.0070872307
0.0033513419 -0.005199071 0.0062557049
0.0057571866 -0.005199071 0.0065842764
0.0081630349 -0.0076049156 0.0074676629
0.01056888 -0.0076049156 0.0077703577
0.0081630349 -0.005199071 0.0070895208
0.01056888 -0.005199071 0.0074874982
0.012737863 -0.010010762 0.0084910849
0.012974724 -0.014314426 0.01089693
0.012974724 -0.012416609 0.0094682071
0.015380573 -0.012896793 0.01089693
0.015380573 -0.012416609 0.010457981
0.012974724 -0.010010762 0.0085215708
0.015380573 -0.010010762 0.0089800898
0.016085532 -0.012416609 0.01089693
0.017786417 -0.011129711 0.01089693
0.017786417 -0.010010762 0.0099464618
0.019073892 -0.010010762 0.01089693
0.012974724 -0.0099037476 0.0084910849
0.012974724 -0.0076049156 0.0079723867
0.015380573 -0.0086653344 0.0084910849
0.015380573 -0.0076049156 0.0082033379
0.012974724 -0.005199071 0.0076836469
0.015380573 -0.005199071 0.0077687632
0.01706906 -0.0076049156 0.0084910849
0.017786417 -0.0070771594 0.0084910849
0.017786417 -0.005199071 0.0079875067
0.019648671 -0.005199071 0.0084910849
0.017786417 -0.0076049156 0.0086757289
0.020192262 -0.0088546034 0.01089693
0.020192262 -0.0076049156 0.0099027203
0.020192262 -0.005199071 0.0087396763
0.015380573 -0.014583427 0.013302777
0.017786417 -0.012799151 0.013302777
0.017786417 -0.012416609 0.012584094
0.018233303 -0.012416609 0.013302777
0.020192262 -0.010526529 0.013302777
0.020192262 -0.010010762 0.012335787
0.017786417 -0.013591982 0.015708622
0.019072976 -0.012416609 0.015708622
0.020192262 -0.011270477 0.015708622
0.0057571866 -0.0027932264 0.0063119894
0.0057571866 -0.00038737804 0.0062946007
0.0081630349 -0.0027932264 0.0068965517
0.01056888 -0.0027932264 0.007394434
0.0081630349 -0.00038737804 0.0068397848
0.01056888 -0.00038737804 0.0073597152
0.0033513419 0.0020184666 0.0061747851
0.0057571866 0.0020184666 0.006390973
0.0081630349 0.0020184666 0.0068253586
0.01056888 0.0020184666 0.0072988709
0.012974724 -0.0027932264 0.0076008923
0.015380573 -0.0027932264 0.0075758947
0.012974724 -0.00038737804 0.0075906226
0.015380573 -0.00038737804 0.007552457
0.017786417 -0.0027932264 0.0076176533
0.020192262 -0.0043908805 0.0084910849
0.020192262 -0.0027932264 0.0081357891
0.017786417 -0.00038737804 0.0075053526
0.020192262 -0.00038737804 0.0078645572
0.012974724 0.0020184666 0.0075641191
0.015380573 0.0020184666 0.0076077254
0.017786417 0.0020184666 0.0075633079
0.020192262 0.0020184666 0.0078339865
0.021157771 -0.0076049156 0.01089693
0.022464558 -0.005199071 0.01089693
0.020640109 -0.010010762 0.013302777
0.021237254 -0.010010762 0.015708622
0.022306234 -0.0076049156 0.013302777
0.022598106 -0.0070439931 0.013302777
0.022598106 -0.005199071 0.011133723
0.023417663 -0.005199071 0.013302777
0.022598106 -0.0079020523 0.015708622
0.022598106 -0.0076049156 0.014631983
0.022753581 -0.0076049156 0.015708622
0.023864076 -0.005199071 0.015708622
0.020961903 -0.0027932264 0.0084910849
0.021590494 -0.00038737804 0.0084910849
0.022598106 -0.0048672669 0.01089693
0.022598106 -0.0027932264 0.0098836785
0.023270715 -0.0027932264 0.01089693
0.022598106 -0.00038737804 0.0093128067
0.023739625 -0.00038737804 0.01089693
0.021742221 0.0020184666 0.0084910849
0.022598106 0.0020184666 0.0091693355
0.023879346 0.0020184666 0.01089693
0.024209969 -0.0027932264 0.013302777
0.024662737 -0.00038737804 0.013302777
0.024667196 -0.0027932264 0.015708622
0.025003951 -0.0012187473 0.015708622
0.025003951 -0.00038737804 0.014917994
0.025129955 -0.00038737804 0.015708622
0.02481541 0.0020184666 0.013302777
0.025003951 0.0020184666 0.01408143
0.025308449 0.0020184666 0.015708622
0.0033513419 -0.019739047 0.020520313
0.0033513419 -0.019634144 0.019541159
0.0042386204 -0.019634144 0.020520313
0.0033513419 -0.019449275 0.018114466
0.0057571866 -0.019098841 0.018114466
0.0057571866 -0.019402241 0.020520313
0.0081630349 -0.01859979 0.018114466
0.01056888 -0.017919408 0.018114466
0.0081630349 -0.018875536 0.020520313
0.01056888 -0.018068444 0.020520313
0.0033513419 -0.019990053 0.022926159
0.0054580718 -0.019634144 0.022926159
0.0033513419 -0.020194333 0.025332004
0.0057571866 -0.019705504 0.025332004
0.0057571866 -0.019634144 0.023969311
0.0060417913 -0.019634144 0.025332004
0.0057571866 -0.019574516 0.022926159
0.0081630349 -0.01897542 0.022926159
0.01056888 -0.018047364 0.022926159
0.0081630349 -0.019010279 0.025332004
0.01056888 -0.018007444 0.025332004
0.012444545 -0.017228298 0.018114466
0.012974724 -0.016999368 0.018114466
0.015380573 -0.015672101 0.018114466
0.012532517 -0.017228298 0.020520313
0.012974724 -0.017017484 0.020520313
0.015380573 -0.015603617 0.020520313
0.016591981 -0.014822453 0.018114466
0.016456183 -0.014822453 0.020520313
0.012271587 -0.017228298 0.022926159
0.012974724 -0.016856559 0.022926159
0.015380573 -0.015313141 0.022926159
0.012074698 -0.017228298 0.025332004
0.012974724 -0.016701113 0.025332004
0.015380573 -0.015016198 0.025332004
0.016037244 -0.014822453 0.022926159
0.015632559 -0.014822453 0.025332004
0.0033513419 -0.020229671 0.027737848
0.0057571866 -0.019754983 0.027737848
0.0033513419 -0.020056017 0.030143697
0.0057571866 -0.019642342 0.030143697
0.006187927 -0.019634144 0.027737848
0.0057889558 -0.019634144 0.030143697
0.0081630349 -0.018978456 0.027737848
0.01056888 -0.017944165 0.027737848
0.0081630349 -0.018858664 0.030143697
0.01056888 -0.017800821 0.030143697
0.0033513419 -0.01973195 0.032549541
0.0043373257 -0.019634144 0.032549541
0.0057571866 -0.019634144 0.030240498
0.0033513419 -0.019634144 0.033206511
0.0057571866 -0.019401262 0.032549541
0.0081630349 -0.01867952 0.032549541
0.01056888 -0.017584335 0.032549541
0.011971109 -0.017228298 0.027737848
0.012974724 -0.016628934 0.027737848
0.015380573 -0.014859481 0.027737848
0.011715245 -0.017228298 0.030143697
0.012974724 -0.016488921 0.030143697
0.015238583 -0.014822453 0.030143697
0.015380573 -0.014822453 0.0285041
0.015426751 -0.014822453 0.027737848
0.011264142 -0.017228298 0.032549541
0.012974724 -0.016206751 0.032549541
0.014891103 -0.014822453 0.032549541
0.017786417 -0.01382927 0.018114466
0.019295812 -0.012416609 0.018114466
0.020192262 -0.011492988 0.018114466
0.017786417 -0.013684906 0.020520313
0.019126534 -0.012416609 0.020520313
0.020192262 -0.011337318 0.020520313
0.017786417 -0.013313629 0.022926159
0.018730287 -0.012416609 0.022926159
0.020192262 -0.010937959 0.022926159
0.017786417 -0.012972021 0.025332004
0.018374786 -0.012416609 0.025332004
0.020192262 -0.010511814 0.025332004
0.015380573 -0.014707599 0.030143697
0.017786417 -0.012747595 0.027737848
0.018128529 -0.012416609 0.027737848
0.020192262 -0.010097692 0.027737848
0.017786417 -0.012532474 0.030143697
0.017900269 -0.012416609 0.030143697
0.019913793 -0.010010762 0.030143697
0.020192262 -0.010010762 0.02819955
0.020192262 -0.009605173 0.030143697
0.015380573 -0.014439866 0.032549541
0.017622694 -0.012416609 0.032549541
0.017786417 -0.012416609 0.031231329
0.017786417 -0.012246089 0.032549541
0.019616514 -0.010010762 0.032549541
0.020192262 -0.0091412775 0.032549541
0.021432366 -0.010010762 0.018114466
0.021349855 -0.010010762 0.020520313
0.022598106 -0.0082321577 0.018114466
0.022930037 -0.0076049156 0.018114466
0.024060141 -0.005199071 0.018114466
0.022598106 -0.0082080606 0.020520313
0.022929233 -0.0076049156 0.020520313
0.02409986 -0.005199071 0.020520313
0.021018747 -0.010010762 0.022926159
0.02061278 -0.010010762 0.025332004
0.022598106 -0.0078254659 0.022926159
0.022724975 -0.0076049156 0.022926159
0.023909505 -0.005199071 0.022926159
0.022347584 -0.0076049156 0.025332004
0.022598106 -0.0076049156 0.023800392
0.022598106 -0.0071705598 0.025332004
0.023526065 -0.005199071 0.025332004
0.024920333 -0.0027932264 0.018114466
0.025003951 -0.0024929121 0.018114466
0.025003951 -0.0028040558 0.020520313
0.025003951 -0.0027932264 0.019805862
0.025428448 -0.00038737804 0.018114466
0.025007319 -0.0027932264 0.020520313
0.025541935 -0.00038737804 0.020520313
0.025610808 0.0020184666 0.018114466
0.025694091 0.0020184666 0.020520313
0.024783999 -0.0027932264 0.022926159
0.025003951 -0.0027932264 0.020733235
0.025003951 -0.0019752681 0.022926159
0.02433686 -0.0027932264 0.025332004
0.024813313 -0.00038737804 0.025332004
0.025003951 -0.00038737804 0.024412191
0.025299054 -0.00038737804 0.022926159
0.025003951 0.0018176138 0.025332004
0.025453772 0.0020184666 0.022926159
0.025014024 0.0020184666 0.025332004
0.020258069 -0.010010762 0.027737848
0.021936972 -0.0076049156 0.027737848
0.022598106 -0.0064537339 0.027737848
0.023186605 -0.005199071 0.027737848
0.02150147 -0.0076049156 0.030143697
0.022598106 -0.0056758504 0.030143697
0.022826433 -0.005199071 0.030143697
0.02114163 -0.0076049156 0.032549541
0.022466134 -0.005199071 0.032549541
0.022598106 -0.005199071 0.031536795
0.02401527 -0.0027932264 0.027737848
0.024462219 -0.00038737804 0.027737848
0.023736414 -0.0027932264 0.030143697
0.024232361 -0.00038737804 0.030143697
0.024677254 0.0020184666 0.027737848
0.025003951 0.0020184666 0.025385693
0.024445157 0.0020184666 0.030143697
0.022598106 -0.0049181897 0.032549541
0.023427073 -0.0027932264 0.032549541
0.023952387 -0.00038737804 0.032549541
0.024119731 0.0020184666 0.032549541
0.0033513419 -0.019073751 0.037361231
0.0057571866 -0.018799067 0.037361231
0.0033513419 -0.01863604 0.039767075
0.0057571866 -0.018317588 0.039767075
0.0081630349 -0.018172387 0.037361231
0.010372724 -0.017228298 0.037361231
0.01056888 -0.017228298 0.03590275
0.01056888 -0.017130466 0.037361231
0.0081630349 -0.017814726 0.039767075
0.0099912994 -0.017228298 0.039767075
0.01056888 -0.017001646 0.039767075
0.0033513419 -0.01802692 0.042172924
0.0057571866 -0.017656758 0.042172924
0.0033513419 -0.01771245 0.044578768
0.0057571866 -0.017251071 0.044578768
0.0081630349 -0.017309587 0.042172924
0.0086050816 -0.017228298 0.042172924
0.01056888 -0.016695226 0.042172924
0.0059199631 -0.017228298 0.044578768
0.0081630349 -0.017228298 0.04252803
0.0081630349 -0.016879043 0.044578768
0.01056888 -0.016212456 0.044578768
0.012974724 -0.015664976 0.037361231
0.014083065 -0.014822453 0.037361231
0.012974724 -0.015712807 0.039767075
0.014170233 -0.014822453 0.039767075
0.012974724 -0.015511876 0.042172924
0.013928212 -0.014822453 0.042172924
0.012974724 -0.014877515 0.044578768
0.013049021 -0.014822453 0.044578768
0.0033513419 -0.017932191 0.046984613
0.0057571866 -0.017352918 0.046984613
0.0033513419 -0.018319091 0.049390461
0.0057571866 -0.017679259 0.049390461
0.0063164495 -0.017228298 0.046984613
0.0081630349 -0.016748354 0.046984613
0.01056888 -0.015845034 0.046984613
0.007194344 -0.017228298 0.049390461
0.0081630349 -0.016878728 0.049390461
0.01056888 -0.015784461 0.049390461
0.0033513419 -0.018479954 0.051796306
0.0057571866 -0.017894972 0.051796306
0.0033513419 -0.018509813 0.054202151
0.0057571866 -0.018024925 0.054202151
0.0079373159 -0.017228298 0.051796306
0.0081630349 -0.017149113 0.051796306
0.01056888 -0.016005248 0.051796306
0.0081630349 -0.017426349 0.054202151
0.0081630349 -0.017228298 0.052429058
0.00876607 -0.017228298 0.054202151
0.01056888 -0.016339736 0.054202151
0.012353785 -0.014822453 0.046984613
0.012974724 -0.014822453 0.044758342
0.012195773 -0.014822453 0.049390461
0.0123468 -0.014822453 0.051796306
0.012567259 -0.014822453 0.054202151
0.015380573 -0.013784815 0.037361231
0.015380573 -0.013840549 0.039767075
0.017033182 -0.012416609 0.037361231
0.017786417 -0.011747615 0.037361231
0.019412257 -0.010010762 0.037361231
0.017014116 -0.012416609 0.039767075
0.017786417 -0.011659103 0.039767075
0.019181833 -0.010010762 0.039767075
0.020192262 -0.0089444108 0.037361231
0.020192262 -0.0085028633 0.039767075
0.015380573 -0.013578562 0.042172924
0.015380573 -0.012770044 0.044578768
0.016549584 -0.012416609 0.042172924
0.017786417 -0.011017805 0.042172924
0.018564921 -0.010010762 0.042172924
0.015715051 -0.012416609 0.044578768
0.017786417 -0.010027632 0.044578768
0.017800253 -0.010010762 0.044578768
0.020085402 -0.0076049156 0.042172924
0.020192262 -0.0076049156 0.041820839
0.020192262 -0.0074188933 0.042172924
0.019473173 -0.0076049156 0.044578768
0.020192262 -0.0063767023 0.044578768
0.012974724 -0.01436922 0.046984613
0.015127167 -0.012416609 0.046984613
0.015380573 -0.012416609 0.045671314
0.015380573 -0.012145188 0.046984613
0.012974724 -0.014266331 0.049390461
0.014991902 -0.012416609 0.049390461
0.015380573 -0.011981191 0.049390461
0.017218035 -0.010010762 0.046984613
0.017786417 -0.010010762 0.044625826
0.016946144 -0.010010762 0.049390461
0.017786417 -0.009301316 0.046984613
0.019008063 -0.0076049156 0.046984613
0.020192262 -0.0057618022 0.046984613
0.017786417 -0.0088464431 0.049390461
0.018658865 -0.0076049156 0.049390461
0.020192262 -0.005426921 0.049390461
0.012974724 -0.014341354 0.051796306
0.015028864 -0.012416609 0.051796306
0.015380573 -0.012011826 0.051796306
0.012974724 -0.014459832 0.054202151
0.015009798 -0.012416609 0.054202151
0.015380573 -0.011989217 0.054202151
0.016869564 -0.010010762 0.051796306
0.016866308 -0.010010762 0.054202151
0.017786417 -0.0086375214 0.051796306
0.018486772 -0.0076049156 0.051796306
0.020174164 -0.005199071 0.051796306
0.020192262 -0.005199071 0.051592089
0.017786417 -0.0085960552 0.054202151
0.018409189 -0.0076049156 0.054202151
0.019896302 -0.005199071 0.054202151
0.020192262 -0.0051716287 0.051796306
0.020192262 -0.0046575144 0.054202151
0.021030843 -0.0076049156 0.037361231
0.022293482 -0.005199071 0.037361231
0.020732079 -0.0076049156 0.039767075
0.021972582 -0.005199071 0.039767075
0.021391932 -0.005199071 0.042172924
0.020858664 -0.005199071 0.044578768
0.022598106 -0.0044511799 0.037361231
0.023086432 -0.0027932264 0.037361231
0.023416489 -0.00038737804 0.037361231
0.022598106 -0.0032873023 0.039767075
0.022703487 -0.0027932264 0.039767075
0.022982862 -0.00038737804 0.039767075
0.023406308 0.0020184666 0.037361231
0.022934627 0.0020184666 0.039767075
0.02230541 -0.0027932264 0.042172924
0.022598106 -0.0027932264 0.040343422
0.022598106 -0.0014011003 0.042172924
0.022694044 -0.00038737804 0.042172924
0.021964494 -0.0027932264 0.044578768
0.022527412 -0.00038737804 0.044578768
0.022598106 -0.00038737804 0.043743312
0.022666559 0.0020184666 0.042172924
0.022598106 0.0032713078 0.042172924
0.022598106 0.00044316053 0.044578768
0.022639561 0.0020184666 0.044578768
0.020532276 -0.005199071 0.046984613
0.020344257 -0.005199071 0.049390461
0.021704454 -0.0027932264 0.046984613
0.022359483 -0.00038737804 0.046984613
0.021614559 -0.0027932264 0.049390461
0.022303816 -0.00038737804 0.049390461
0.022598106 0.0017225295 0.046984613
0.022612628 0.0020184666 0.046984613
0.022564206 0.0020184666 0.049390461
0.022598106 0.0020184666 0.047965094
0.022598106 0.0039934441 0.049390461
0.021440424 -0.0027932264 0.051796306
0.02210962 -0.00038737804 0.051796306
0.021014962 -0.0027932264 0.054202151
0.021688651 -0.00038737804 0.054202151
0.02238328 0.0020184666 0.051796306
0.0220901 0.0020184666 0.054202151
0.0033513419 -0.018679526 0.056607995
0.0057571866 -0.018242905 0.056607995
0.0033513419 -0.019122858 0.05901384
0.0057571866 -0.018647227 0.05901384
0.0081630349 -0.017670909 0.056607995
0.0093424618 -0.017228298 0.056607995
0.01056888 -0.016546847 0.056607995
0.0081630349 -0.017918583 0.05901384
0.0096343271 -0.017228298 0.05901384
0.01056888 -0.016650146 0.05901384
0.0033513419 -0.01969 0.061419684
0.0033513419 -0.019634144 0.061157573
0.0036640689 -0.019634144 0.061419684
0.0033513419 -0.019687245 0.063825533
0.0036478937 -0.019634144 0.063825533
0.0057571866 -0.019141864 0.061419684
0.0057571866 -0.019083109 0.063825533
0.0081630349 -0.018212929 0.061419684
0.0099579431 -0.017228298 0.061419684
0.01056888 -0.016837556 0.061419684
0.0081630349 -0.018049099 0.063825533
0.0096151307 -0.017228298 0.063825533
0.01056888 -0.016618699 0.063825533
0.012642767 -0.014822453 0.056607995
0.012714297 -0.014822453 0.05901384
0.012974724 -0.014891772 0.061419684
0.012974724 -0.014822453 0.061043654
0.013046842 -0.014822453 0.061419684
0.012890153 -0.014822453 0.063825533
0.012974724 -0.014822453 0.063641787
0.0033513419 -0.019634144 0.063974321
0.0033513419 -0.01762891 0.066231385
0.004838191 -0.017228298 0.066231385
0.0057571866 -0.017228298 0.066024929
0.0057571866 -0.016887128 0.066231385
0.0033513419 -0.017228298 0.066464767
0.0033513419 -0.014822453 0.067482919
0.0057571866 -0.014822453 0.067159444
0.0081630349 -0.017228298 0.065112785
0.0081630349 -0.015692309 0.066231385
0.0095141158 -0.014822453 0.066231385
0.01056888 -0.014822453 0.065804929
0.0081630349 -0.014822453 0.06664589
0.012974724 -0.014486864 0.056607995
0.014861941 -0.012416609 0.056607995
0.015380573 -0.011828614 0.056607995
0.012974724 -0.014553793 0.05901384
0.014857072 -0.012416609 0.05901384
0.015380573 -0.011829067 0.05901384
0.016873579 -0.010010762 0.056607995
0.016958233 -0.010010762 0.05901384
0.017786417 -0.0087051783 0.056607995
0.018452112 -0.0076049156 0.056607995
0.019707736 -0.005199071 0.056607995
0.017786417 -0.0089369453 0.05901384
0.018662911 -0.0076049156 0.05901384
0.019829482 -0.005199071 0.05901384
0.015198316 -0.012416609 0.061419684
0.015380573 -0.012206823 0.061419684
0.012974724 -0.014747152 0.063825533
0.015154056 -0.012416609 0.063825533
0.015380573 -0.012148153 0.063825533
0.017222721 -0.010010762 0.061419684
0.017088078 -0.010010762 0.063825533
0.017786417 -0.0092865396 0.061419684
0.018977702 -0.0076049156 0.061419684
0.020192262 -0.0052557886 0.061419684
0.020192262 -0.005199071 0.06130429
0.017786417 -0.0090761092 0.063825533
0.018836867 -0.0076049156 0.063825533
0.020192262 -0.0054122824 0.063825533
0.020192262 -0.0040474162 0.056607995
0.020192262 -0.0041630082 0.05901384
0.0030621104 -0.010010762 0.068637222
0.0057571866 -0.010010762 0.068335697
0.01056888 -0.014036683 0.066231385
0.0057571866 -0.012416609 0.067856133
0.0081630349 -0.012416609 0.067448005
0.01056888 -0.012416609 0.066879675
0.0081630349 -0.010010762 0.067977458
0.01056888 -0.010010762 0.067527235
0.0057571866 -0.0080100466 0.068637222
0.0084400214 -0.005199071 0.068637222
0.01056888 -0.005199071 0.068305701
0.0057571866 -0.005199071 0.068982393
0.012412678 -0.012416609 0.066231385
0.012974724 -0.012416609 0.065974414
0.012974724 -0.011864681 0.066231385
0.014643535 -0.010010762 0.066231385
0.015380573 -0.010010762 0.065817073
0.012974724 -0.010010762 0.066894725
0.015380573 -0.009074958 0.066231385
0.01056888 -0.0076049156 0.067969576
0.012974724 -0.0076049156 0.067459613
0.015380573 -0.0076049156 0.066720173
0.012974724 -0.005199071 0.067857161
0.015380573 -0.005199071 0.067276016
0.016453236 -0.0076049156 0.066231385
0.017786417 -0.0076049156 0.065334737
0.017786417 -0.0056790374 0.066231385
0.018112887 -0.005199071 0.066231385
0.020192262 -0.005199071 0.064210802
0.017786417 -0.005199071 0.066391483
0.01142738 -0.00038737804 0.068637222
0.01056888 -0.0020324513 0.068637222
0.015380573 -0.00038737804 0.067949578
0.019637987 -0.0027932264 0.066231385
0.020192262 -0.0027932264 0.065909088
0.020192262 -0.0018140972 0.066231385
0.015380573 -0.0027932264 0.067664757
0.017786417 -0.0027932264 0.067002773
0.017786417 -0.00038737804 0.067403987
0.020192262 -0.00038737804 0.066576347
0.015380573 0.0020184666 0.0681521
0.017786417 0.0020184666 0.067665324
0.020192262 0.0020184666 0.066946656
0.01056888 -0.00038737804 0.068769902
0.02021442 -0.005199071 0.061419684
0.020309266 -0.005199071 0.063825533
0.020646304 -0.0027932264 0.056607995
0.021366581 -0.00038737804 0.056607995
0.02063185 -0.0027932264 0.05901384
0.021380346 -0.00038737804 0.05901384
0.021912772 0.0020184666 0.056607995
0.022015769 0.0020184666 0.05901384
0.021057606 -0.0027932264 0.061419684
0.021852478 -0.00038737804 0.061419684
0.021481935 -0.0027932264 0.063825533
0.022402465 -0.00038737804 0.063825533
0.022499986 0.0020184666 0.061419684
0.022598106 0.0025955588 0.061419684
0.022598106 0.00026228651 0.063825533
0.022598106 0.0020184666 0.061742183
0.022987466 0.0020184666 0.063825533
0.020863846 -0.00038737804 0.066231385
0.021584567 0.0020184666 0.066231385
0.022598106 0.0020184666 0.065249503
0.0033513419 0.0068301558 0.006727064
0.0057571866 0.0068301558 0.0067771804
0.0033513419 0.0092360005 0.0070943646
0.0057571866 0.0092360005 0.0070989998
0.0081630349 0.0068301558 0.0069642225
0.01056888 0.0068301558 0.0072123241
0.0081630349 0.0092360005 0.0072486708
0.01056888 0.0092360005 0.0074619092
0.0033513419 0.011641849 0.0074043348
0.0057571866 0.011641849 0.0073933769
0.0033513419 0.014047693 0.0075048022
0.0057571866 0.014047693 0.0075667277
0.0081630349 0.011641849 0.0075486768
0.01056888 0.011641849 0.0078000594
0.0081630349 0.014047693 0.0077225044
0.01056888 0.014047693 0.0079390323
0.012974724 0.0068301558 0.0074823266
0.015380573 0.0068301558 0.0077693397
0.012974724 0.0092360005 0.0077113044
0.015380573 0.0092360005 0.007983298
0.017786417 0.0068301558 0.0079019284
0.020192262 0.0068301558 0.0082463864
0.017786417 0.0092360005 0.0081511587
0.019737158 0.0092360005 0.0084910849
0.020192262 0.0083677322 0.0084910849
0.020192262 0.0092360005 0.0086575318
0.012974724 0.011641849 0.0080341827
0.015380573 0.011641849 0.0082412912
0.012974724 0.014047693 0.0081758304
0.015380573 0.014047693 0.0084588006
0.017786417 0.011641849 0.0084731746
0.017915949 0.011641849 0.0084910849
0.015617609 0.014047693 0.0084910849
0.017786417 0.011756025 0.0084910849
0.020192262 0.011641849 0.0092815664
0.017786417 0.014047693 0.0089325821
0.020192262 0.014047693 0.010294545
0.0033513419 0.016453538 0.0074923057
0.0057571866 0.016453538 0.0076348884
0.0033513419 0.018859386 0.007572988
0.0057571866 0.018859386 0.0077169919
0.0081630349 0.016453538 0.0077781593
0.01056888 0.016453538 0.0079501551
0.0081630349 0.018859386 0.0078604668
0.01056888 0.018859386 0.0080843233
0.0033513419 0.021265231 0.0077995937
0.0057571866 0.021265231 0.0079211183
0.0033513419 0.023671076 0.0084563531
0.0038244016 0.023671076 0.0084910849
0.0057571866 0.023288831 0.0084910849
0.0057571866 0.023671076 0.0086888419
0.0081630349 0.021265231 0.0081336116
0.010260619 0.021265231 0.0084910849
0.01056888 0.02101884 0.0084910849
0.0081630349 0.022506621 0.0084910849
0.01056888 0.021265231 0.0085650841
0.0081630349 0.023671076 0.0091511821
0.01056888 0.023671076 0.010105221
0.012974724 0.016453538 0.0082545988
0.014247231 0.016453538 0.0084910849
0.015380573 0.014408804 0.0084910849
0.01273074 0.018859386 0.0084910849
0.012974724 0.018534236 0.0084910849
0.015380573 0.016453538 0.0087599903
0.012974724 0.018859386 0.0085546114
0.015380573 0.018859386 0.0094820512
0.017786417 0.016453538 0.0097250137
0.019260049 0.016453538 0.01089693
0.020192262 0.015013088 0.01089693
0.017341934 0.018859386 0.01089693
0.017786417 0.018347427 0.01089693
0.012974724 0.021265231 0.0094711948
0.014951874 0.021265231 0.01089693
0.015380573 0.020873066 0.01089693
0.011746749 0.023671076 0.01089693
0.012974724 0.022872858 0.01089693
0.020192262 0.016453538 0.01224464
0.017786417 0.018859386 0.011382224
0.018927641 0.018859386 0.013302777
0.020192262 0.017175414 0.013302777
0.019587681 0.018859386 0.015708622
0.020192262 0.018078335 0.015708622
0.015380573 0.021265231 0.011347272
0.012974724 0.023671076 0.012196701
0.013639614 0.023671076 0.013302777
0.015380573 0.022357311 0.013302777
0.014483418 0.023671076 0.015708622
0.015380573 0.022990867 0.015708622
0.016639322 0.021265231 0.013302777
0.017786417 0.020138871 0.013302777
0.017351385 0.021265231 0.015708622
0.017786417 0.020839792 0.015708622
0.020836402 0.0068301558 0.0084910849
0.022598106 0.0068301558 0.0098699275
0.023311108 0.0068301558 0.01089693
0.022598106 0.0092360005 0.010752418
0.022688773 0.0092360005 0.01089693
0.021865956 0.011641849 0.01089693
0.022598106 0.0095388889 0.01089693
0.020737659 0.014047693 0.01089693
0.024314653 0.0068301558 0.013302777
0.023747057 0.0092360005 0.013302777
0.024819668 0.0068301558 0.015708622
0.025003951 0.0057992823 0.015708622
0.024290718 0.0092360005 0.015708622
0.022598106 0.011641849 0.012243478
0.022998586 0.011641849 0.013302777
0.02202455 0.014047693 0.013302777
0.022598106 0.01273017 0.013302777
0.02358729 0.011641849 0.015708622
0.022598106 0.014047693 0.015617626
0.022612352 0.014047693 0.015708622
0.020662431 0.016453538 0.013302777
0.021295145 0.016453538 0.015708622
0.022598106 0.014078438 0.015708622
0.0033513419 0.023744151 0.0084910849
0.0033513419 0.02607692 0.010752962
0.003957577 0.02607692 0.01089693
0.0057571866 0.025766179 0.01089693
0.0033513419 0.026159849 0.01089693
0.0081630349 0.025188703 0.01089693
0.01056888 0.02428947 0.01089693
0.0057571866 0.02607692 0.011508536
0.0033513419 0.027167849 0.013302777
0.0057571866 0.026742231 0.013302777
0.0033513419 0.027694151 0.015708622
0.0057571866 0.027278364 0.015708622
0.0081630349 0.02607692 0.012957664
0.0085592978 0.02607692 0.013302777
0.01056888 0.025395267 0.013302777
0.0081630349 0.026181225 0.013302777
0.010156721 0.02607692 0.015708622
0.01056888 0.02591965 0.015708622
0.0081630349 0.026702572 0.015708622
0.012974724 0.024108838 0.013302777
0.012974724 0.024680939 0.015708622
0.019830726 0.018859386 0.018114466
0.020192262 0.01839646 0.018114466
0.019836385 0.018859386 0.020520313
0.020192262 0.018378269 0.020520313
0.014847353 0.023671076 0.018114466
0.015380573 0.023254268 0.018114466
0.014912203 0.023671076 0.020520313
0.015380573 0.023318864 0.020520313
0.017589126 0.021265231 0.018114466
0.017786417 0.021072518 0.018114466
0.017664373 0.021265231 0.020520313
0.017786417 0.021144271 0.020520313
0.019680645 0.018859386 0.022926159
0.020192262 0.018141259 0.022926159
0.019399077 0.018859386 0.025332004
0.020192262 0.017819855 0.025332004
0.014700439 0.023671076 0.022926159
0.015380573 0.023194116 0.022926159
0.014298186 0.023671076 0.025332004
0.015380573 0.022897616 0.025332004
0.017597184 0.021265231 0.022926159
0.017786417 0.021073647 0.022926159
0.017250501 0.021265231 0.025332004
0.017786417 0.020721652 0.025332004
0.018927839 0.018859386 0.027737848
0.020192262 0.017370194 0.027737848
0.018577632 0.018859386 0.030143697
0.020192262 0.016980231 0.030143697
0.013839681 0.023671076 0.027737848
0.015380573 0.022494622 0.027737848
0.013541244 0.023671076 0.030143697
0.015380573 0.022268649 0.030143697
0.016682897 0.021265231 0.027737848
0.017786417 0.020116068 0.027737848
0.016401496 0.021265231 0.030143697
0.017786417 0.019750606 0.030143697
0.018615182 0.018859386 0.032549541
0.020192262 0.01691971 0.032549541
0.013546363 0.023671076 0.032549541
0.015380573 0.022343855 0.032549541
0.016509067 0.021265231 0.032549541
0.017786417 0.019832816 0.032549541
0.025003951 0.0068301558 0.017185917
0.0245387 0.0092360005 0.018114466
0.025003951 0.0072145686 0.018114466
0.024588149 0.0092360005 0.020520313
0.025003951 0.0075380914 0.020520313
0.025086749 0.0068301558 0.018114466
0.025158349 0.0068301558 0.020520313
0.023821674 0.011641849 0.018114466
0.022808924 0.014047693 0.018114466
0.023836393 0.011641849 0.020520313
0.022805836 0.014047693 0.020520313
0.024567258 0.0092360005 0.022926159
0.025003951 0.0073367208 0.022926159
0.024920326 0.0068301558 0.025332004
0.025003951 0.0059644133 0.025332004
0.025003951 0.0068301558 0.024442321
0.02445507 0.0092360005 0.025332004
0.025092933 0.0068301558 0.022926159
0.023788724 0.011641849 0.022926159
0.022735626 0.014047693 0.022926159
0.023651887 0.011641849 0.025332004
0.022591311 0.014047693 0.025332004
0.022598106 0.014033921 0.025332004
0.022598106 0.014047693 0.025243845
0.021513198 0.016453538 0.018114466
0.022598106 0.014484942 0.018114466
0.021468997 0.016453538 0.020520313
0.022598106 0.014462989 0.020520313
0.021323148 0.016453538 0.022926159
0.022598106 0.01431397 0.022926159
0.021163184 0.016453538 0.025332004
0.024602719 0.0068301558 0.027737848
0.024161052 0.0092360005 0.027737848
0.02428937 0.0068301558 0.030143697
0.02386849 0.0092360005 0.030143697
0.023411155 0.011641849 0.027737848
0.022386182 0.014047693 0.027737848
0.022598106 0.01359975 0.027737848
0.023206443 0.011641849 0.030143697
0.022185422 0.014047693 0.030143697
0.022598106 0.013195343 0.030143697
0.023915164 0.0068301558 0.032549541
0.023566719 0.0092360005 0.032549541
0.022984795 0.011641849 0.032549541
0.022014227 0.014047693 0.032549541
0.022598106 0.012746792 0.032549541
0.022598106 0.011641849 0.034901049
0.020902619 0.016453538 0.027737848
0.020612616 0.016453538 0.030143697
0.020536683 0.016453538 0.032549541
0.0033513419 0.027892955 0.018114466
0.0057571866 0.027528286 0.018114466
0.0033513419 0.027929988 0.020520313
0.0057571866 0.027629495 0.020520313
0.01056888 0.02607692 0.01716838
0.0081630349 0.026946492 0.018114466
0.01056888 0.026126008 0.018114466
0.0081630349 0.027038656 0.020520313
0.01056888 0.026133716 0.020520313
0.0033513419 0.027837817 0.022926159
0.0057571866 0.027553365 0.022926159
0.0033513419 0.027497008 0.025332004
0.0057571866 0.027211614 0.025332004
0.010495674 0.02607692 0.022926159
0.01056888 0.026042078 0.022926159
0.01056888 0.02607692 0.022199431
0.0081630349 0.026979402 0.022926159
0.010003448 0.02607692 0.025332004
0.01056888 0.025825072 0.025332004
0.0081630349 0.026705619 0.025332004
0.010690726 0.02607692 0.018114466
0.012974724 0.024930656 0.018114466
0.010696907 0.02607692 0.020520313
0.012974724 0.024913356 0.020520313
0.012974724 0.024742704 0.022926159
0.012974724 0.024506558 0.025332004
0.0033513419 0.027096976 0.027737848
0.0057571866 0.02686359 0.027737848
0.0033513419 0.027040169 0.030143697
0.0057571866 0.026839294 0.030143697
0.0092222989 0.02607692 0.027737848
0.01056888 0.025516346 0.027737848
0.0081630349 0.026405025 0.027737848
0.0087336861 0.02607692 0.030143697
0.01056888 0.025298692 0.030143697
0.0081630349 0.026275367 0.030143697
0.0033513419 0.027091552 0.032549541
0.0057571866 0.026987944 0.032549541
0.0088015236 0.02607692 0.032549541
0.01056888 0.025284398 0.032549541
0.0081630349 0.026337363 0.032549541
0.012974724 0.024212357 0.027737848
0.012974724 0.024011992 0.030143697
0.012974724 0.024006628 0.032549541
0.01853681 0.018859386 0.037361231
0.020192262 0.016534802 0.037361231
0.019882496 0.016453538 0.039767075
0.020192262 0.016019408 0.039767075
0.020192262 0.016453538 0.037704859
0.017957803 0.018859386 0.039767075
0.01335939 0.023671076 0.037361231
0.015380573 0.022037528 0.037361231
0.012694985 0.023671076 0.039767075
0.012974724 0.023462832 0.039767075
0.012974724 0.023671076 0.038848769
0.015380573 0.021480888 0.039767075
0.016231023 0.021265231 0.037361231
0.017786417 0.019716363 0.037361231
0.015622769 0.021265231 0.039767075
0.017786417 0.019061588 0.039767075
0.019479409 0.016453538 0.042172924
0.020192262 0.015579108 0.042172924
0.017393727 0.018859386 0.042172924
0.017786417 0.018387619 0.042172924
0.017786417 0.018859386 0.040398397
0.019237261 0.016453538 0.044578768
0.020192262 0.015274882 0.044578768
0.017120842 0.018859386 0.044578768
0.017786417 0.018077832 0.044578768
0.015178692 0.021265231 0.042172924
0.015380573 0.02106959 0.042172924
0.015380573 0.021265231 0.040787149
0.012230139 0.023671076 0.042172924
0.012974724 0.023127686 0.042172924
0.014976226 0.021265231 0.044578768
0.015380573 0.020835981 0.044578768
0.012168832 0.023671076 0.044578768
0.012974724 0.023079645 0.044578768
0.019914232 0.014047693 0.054202151
