# .PCD v0.7 - Point Cloud Data file format
VERSION 0.7
FIELDS x y z
SIZE 4 4 4
TYPE F F F
COUNT 1 1 1
WIDTH 1286
HEIGHT 1
VIEWPOINT 0 0 0 1 0 0 0
POINTS 1286
DATA ascii
-0.014299957 0.021144573 0.030744605
-0.014299957 0.021161228 0.030254003
-0.014280623 0.021161228 0.030744605
-0.016626522 0.018753584 0.033152245
-0.014299957 0.021083023 0.033152245
-0.0142045 0.021161228 0.033152245
-0.014299957 0.021354612 0.018706391
-0.011892315 0.023305878 0.018706391
-0.014299957 0.021522969 0.021114033
-0.011892315 0.023435228 0.021114033
-0.011516735 0.023568872 0.018706391
-0.0094846711 0.024911258 0.018706391
-0.0075601898 0.025976513 0.018706391
-0.007077029 0.025976513 0.016453812
-0.011702003 0.023568872 0.021114033
-0.0094846711 0.025028337 0.021114033
-0.0076950882 0.025976513 0.021114033
-0.007077029 0.026201408 0.018706391
-0.007077029 0.026243594 0.021114033
-0.014299957 0.021521639 0.023521677
-0.011892315 0.023460694 0.023521677
-0.014299957 0.021401331 0.025929319
-0.011892315 0.023375213 0.025929319
-0.011743769 0.023568872 0.023521677
-0.0094846711 0.025078647 0.023521677
-0.0077310652 0.025976513 0.023521677
-0.011633197 0.023568872 0.025929319
-0.0094846711 0.025008488 0.025929319
-0.0075698439 0.025976513 0.025929319
-0.007077029 0.0262408 0.023521677
-0.007077029 0.026178394 0.025929319
-0.0046693869 0.027170811 0.018706391
-0.0022617429 0.027876396 0.018706391
-0.0046693869 0.027173284 0.021114033
-0.0022617429 0.027930584 0.021114033
0.00014589727 0.02831522 0.018706391
0.00070748106 0.028384153 0.018706391
-0.00019133836 0.028384153 0.021114033
0.00014589727 0.028384153 0.019810168
0.00014589727 0.02844074 0.021114033
-0.0046693869 0.027132217 0.023521677
-0.0022617429 0.02793527 0.023521677
-0.0046693869 0.027103428 0.025929319
-0.0022617429 0.027948026 0.025929319
-0.00050437823 0.028384153 0.023521677
0.00014589727 0.028514218 0.023521677
-0.00073451921 0.028384153 0.025929319
0.00014589727 0.028591875 0.025929319
-0.014299957 0.021248017 0.028336961
-0.011892315 0.023230471 0.028336961
-0.011892315 0.023078438 0.030744605
-0.011440417 0.023568872 0.028336961
-0.0094846711 0.024858072 0.028336961
-0.0073271096 0.025976513 0.028336961
-0.011211954 0.023568872 0.030744605
-0.0094846711 0.024683595 0.030744605
-0.0071279109 0.025976513 0.030744605
-0.007077029 0.026088569 0.028336961
-0.007077029 0.026001368 0.030744605
-0.011892315 0.022869509 0.033152245
-0.010823509 0.023568872 0.033152245
-0.0094846711 0.024399396 0.033152245
-0.007077029 0.025794365 0.033152245
-0.007077029 0.025976513 0.031198177
-0.0046693869 0.027112525 0.028336961
-0.0022617429 0.028030444 0.028336961
-0.0046693869 0.027117509 0.030744605
-0.0022617429 0.028065663 0.030744605
-0.0011347942 0.028384153 0.028336961
0.00014589727 0.028703626 0.028336961
-0.0012313947 0.028384153 0.030744605
0.00014589727 0.028705593 0.030744605
-0.0067240763 0.025976513 0.033152245
-0.0046693869 0.026946072 0.033152245
-0.0022617429 0.027830694 0.033152245
-0.00011152774 0.028384153 0.033152245
0.00014589727 0.028437961 0.033152245
0.00014589727 0.028384153 0.033470266
-0.021112695 0.004307732 0.037967533
-0.02074822 0.0067153722 0.037967533
-0.021043036 0.004307732 0.040375173
-0.020745482 0.0067153722 0.040375173
-0.020269986 0.0091230161 0.037967533
-0.01972927 0.011530656 0.037967533
-0.020230299 0.0091230161 0.040375173
-0.01954072 0.011530656 0.040375173
-0.021522883 0.0029649362 0.045190457
-0.0210554 0.004307732 0.042782817
-0.020763947 0.0067153722 0.042782817
-0.021316513 0.004307732 0.045190457
-0.020881426 0.0067153722 0.045190457
-0.020332396 0.0091230161 0.042782817
-0.019576045 0.011530656 0.042782817
-0.020381954 0.0091230161 0.045190457
-0.019584773 0.011530656 0.045190457
-0.019115241 0.013560705 0.037967533
-0.019115241 0.0139383 0.036807209
-0.018980859 0.0139383 0.037967533
-0.017917428 0.016345944 0.037967533
-0.019115241 0.012713097 0.040375173
-0.01859853 0.0139383 0.040375173
-0.017422996 0.016345944 0.040375173
-0.016707599 0.018242422 0.037967533
-0.016707599 0.017575316 0.040375173
-0.019115241 0.012558062 0.042782817
-0.018422695 0.0139383 0.042782817
-0.017222451 0.016345944 0.042782817
-0.019115241 0.012504295 0.045190457
-0.01834668 0.0139383 0.045190457
-0.017081391 0.016345944 0.045190457
-0.016707599 0.017315131 0.042782817
-0.016707599 0.017044593 0.045190457
-0.021692857 0.004307732 0.047598101
-0.021522883 0.004307732 0.046493247
-0.021522883 0.0050425753 0.047598101
-0.021946911 0.004307732 0.050005745
-0.021522883 0.0058758743 0.050005745
-0.021088596 0.0067153722 0.047598101
-0.021282647 0.0067153722 0.050005745
-0.020343749 0.0091230161 0.047598101
-0.01939314 0.011530656 0.047598101
-0.020440381 0.0091230161 0.050005745
-0.019395644 0.011530656 0.050005745
-0.022155948 0.004307732 0.052413385
-0.021530882 0.0067153722 0.052413385
-0.021522883 0.0067153722 0.052356713
-0.022345964 0.004307732 0.054821029
-0.021856867 0.0067153722 0.054821029
-0.021522883 0.0067453682 0.052413385
-0.021522883 0.0078891329 0.054821029
-0.02075799 0.0091230161 0.052413385
-0.019736746 0.011530656 0.052413385
-0.021099888 0.0091230161 0.054821029
-0.020079425 0.011530656 0.054821029
-0.019115241 0.012098975 0.047598101
-0.018081997 0.0139383 0.047598101
-0.016707599 0.016251482 0.047598101
-0.016707599 0.016345944 0.047325995
-0.019115241 0.012107391 0.050005745
-0.018081268 0.0139383 0.050005745
-0.016707599 0.016068496 0.050005745
-0.019115241 0.012822747 0.052413385
-0.018502349 0.0139383 0.052413385
-0.016884778 0.016345944 0.052413385
-0.016707599 0.016345944 0.051484659
-0.019115241 0.0135387 0.054821029
-0.018903732 0.0139383 0.054821029
-0.017339429 0.016345944 0.054821029
-0.016707599 0.016576674 0.052413385
-0.016707599 0.01712187 0.054821029
-0.016285401 0.018753584 0.037967533
-0.014299957 0.020586725 0.037967533
-0.013548998 0.021161228 0.037967533
-0.015821422 0.018753584 0.040375173
-0.014299957 0.020201981 0.040375173
-0.013093103 0.021161228 0.040375173
-0.015709938 0.018753584 0.042782817
-0.014299957 0.020159338 0.042782817
-0.013066364 0.021161228 0.042782817
-0.015575128 0.018753584 0.045190457
-0.014299957 0.020113029 0.045190457
-0.01308004 0.021161228 0.045190457
-0.016652951 0.016345944 0.047598101
-0.016521167 0.016345944 0.050005745
-0.015142104 0.018753584 0.047598101
-0.014299957 0.019785658 0.047598101
-0.01288208 0.021161228 0.047598101
-0.014785588 0.018753584 0.050005745
-0.014299957 0.019342564 0.050005745
-0.012619298 0.021161228 0.050005745
-0.014756771 0.018753584 0.052413385
-0.014299957 0.019202292 0.052413385
-0.012381367 0.021161228 0.052413385
-0.015048251 0.018753584 0.054821029
-0.014299957 0.019394204 0.054821029
-0.0123221 0.021161228 0.054821029
-0.011892315 0.022356533 0.037967533
-0.011892315 0.02209869 0.040375173
-0.0099877436 0.023568872 0.037967533
-0.0094846711 0.023863297 0.037967533
-0.007077029 0.025257755 0.037967533
-0.0097713396 0.023568872 0.040375173
-0.0094846711 0.023746405 0.040375173
-0.007077029 0.025191009 0.040375173
-0.011892315 0.022090904 0.042782817
-0.011892315 0.02213471 0.045190457
-0.0097905267 0.023568872 0.042782817
-0.0094846711 0.023760151 0.042782817
-0.007077029 0.025179077 0.042782817
-0.0099337418 0.023568872 0.045190457
-0.0094846711 0.023856308 0.045190457
-0.007077029 0.025277711 0.045190457
-0.0056846216 0.025976513 0.037967533
-0.0055107344 0.025976513 0.040375173
-0.0046693869 0.026418064 0.037967533
-0.0022617429 0.027229328 0.037967533
-0.0046693869 0.026309218 0.040375173
-0.0022617429 0.027039047 0.040375173
0.00014589727 0.027741041 0.037967533
0.00014589727 0.027495477 0.040375173
-0.0055130571 0.025976513 0.042782817
-0.0057864916 0.025976513 0.045190457
-0.0046693869 0.026336212 0.042782817
-0.0022617429 0.027088162 0.042782817
-0.0046693869 0.026508767 0.045190457
-0.0022617429 0.027269732 0.045190457
0.00014589727 0.027468357 0.042782817
0.00014589727 0.027562458 0.045190457
-0.011892315 0.022029262 0.047598101
-0.011892315 0.021857522 0.050005745
-0.0099288989 0.023568872 0.047598101
-0.0094846711 0.023868352 0.047598101
-0.007077029 0.025323506 0.047598101
-0.0097127352 0.023568872 0.050005745
-0.0094846711 0.023719758 0.050005745
-0.007077029 0.025113195 0.050005745
-0.011892315 0.021650143 0.052413385
-0.011892315 0.021553688 0.054821029
-0.0094846711 0.023529708 0.052413385
-0.0094846711 0.023568872 0.05187083
-0.0094221421 0.023568872 0.052413385
-0.007077029 0.024816893 0.052413385
-0.0094846711 0.023346432 0.054821029
-0.0090877023 0.023568872 0.054821029
-0.007077029 0.02454507 0.054821029
-0.0059073046 0.025976513 0.047598101
-0.0053674001 0.025976513 0.050005745
-0.0046693869 0.026599485 0.047598101
-0.0022617429 0.027356144 0.047598101
-0.0046693869 0.026307512 0.050005745
-0.0022617429 0.027136948 0.050005745
0.00014589727 0.027623702 0.047598101
0.00014589727 0.027576458 0.050005745
-0.0046693869 0.025848359 0.052413385
-0.0046693869 0.025976513 0.051689226
-0.0043376684 0.025976513 0.052413385
-0.0046693869 0.025577907 0.054821029
-0.0036634468 0.025976513 0.054821029
-0.0022617429 0.026689257 0.052413385
-0.0022617429 0.026523095 0.054821029
0.00014589727 0.027385715 0.052413385
0.00014589727 0.027394537 0.054821029
-0.02212229 0.004307732 0.057228673
-0.021862984 0.0067153722 0.057228673
-0.021610342 0.004307732 0.059636313
-0.021522883 0.003264606 0.059636313
-0.021522883 0.0066465847 0.059636313
-0.021522883 0.0067153722 0.059580367
-0.021513086 0.0067153722 0.059636313
-0.021522883 0.0080316439 0.057228673
-0.021149948 0.0091230161 0.057228673
-0.020114206 0.011530656 0.057228673
-0.020896781 0.0091230161 0.059636313
-0.019884991 0.011530656 0.059636313
-0.021522883 0.004307732 0.060117919
-0.02127979 0.004307732 0.062043954
-0.021153044 0.0067153722 0.062043954
-0.02077575 0.004307732 0.064451605
-0.0205466 0.0067153722 0.064451605
-0.020555891 0.0091230161 0.062043954
-0.019605229 0.011530656 0.062043954
-0.01993805 0.0091230161 0.064451605
-0.019115241 0.01139484 0.064451605
-0.019115241 0.011530656 0.064313769
-0.019061331 0.011530656 0.064451605
-0.019115241 0.013589755 0.057228673
-0.018935146 0.0139383 0.057228673
-0.017462544 0.016345944 0.057228673
-0.019115241 0.013148289 0.059636313
-0.018716551 0.0139383 0.059636313
-0.017269412 0.016345944 0.059636313
-0.016707599 0.017287329 0.057228673
-0.016707599 0.017070636 0.059636313
-0.019115241 0.012656853 0.062043954
-0.0185242 0.0139383 0.062043954
-0.017105579 0.016345944 0.062043954
-0.018027898 0.0139383 0.064451605
-0.016707599 0.016150996 0.064451605
-0.016707599 0.016345944 0.064147115
-0.016707599 0.016866952 0.062043954
-0.019115241 0.004307732 0.066602409
-0.018747652 0.004307732 0.066859245
-0.019115241 0.0067153722 0.066377178
-0.018459629 0.0067153722 0.066859245
-0.016707599 0.004307732 0.06783779
-0.016707599 0.0067153722 0.067725718
-0.019115241 0.0091230161 0.06577076
-0.017824516 0.0091230161 0.066859245
-0.016865645 0.011530656 0.066859245
-0.016707599 0.0091230161 0.067448303
-0.016707599 0.011530656 0.066947863
-0.016707599 0.011858735 0.066859245
-0.016707599 0.0139383 0.066119403
-0.015181186 0.018753584 0.057228673
-0.014299957 0.019487776 0.057228673
-0.012275163 0.021161228 0.057228673
-0.015017545 0.018753584 0.059636313
-0.014299957 0.019383311 0.059636313
-0.012167266 0.021161228 0.059636313
-0.016559677 0.016345944 0.064451605
-0.014888352 0.018753584 0.062043954
-0.014299957 0.019300215 0.062043954
-0.012099823 0.021161228 0.062043954
-0.014299957 0.018680979 0.064451605
-0.014299957 0.018753584 0.064325005
-0.014219299 0.018753584 0.064451605
-0.011892315 0.020615447 0.064451605
-0.011892315 0.021161228 0.063181967
-0.011050563 0.021161228 0.064451605
-0.011892315 0.0067153722 0.068812534
-0.0072153714 0.0067153722 0.069266886
-0.014299957 0.0067153722 0.068408698
-0.014299957 0.0091230161 0.068210214
-0.011892315 0.0091230161 0.068644166
-0.014299957 0.011530656 0.067872927
-0.011892315 0.011530656 0.06837438
-0.007077029 0.006971769 0.069266886
-0.007077029 0.011530656 0.068912894
-0.007077029 0.0067153722 0.069276169
-0.015500519 0.0139383 0.066859245
-0.014299957 0.0154199 0.066859245
-0.014299957 0.016345944 0.066454411
-0.013340957 0.016345944 0.066859245
-0.014299957 0.0139383 0.067340925
-0.011892315 0.0139383 0.067953289
-0.011892315 0.016345944 0.067299038
-0.007077029 0.016345944 0.068052486
-0.011892315 0.017487332 0.066859245
-0.011892315 0.018753584 0.066200212
-0.009767551 0.018753584 0.066859245
-0.0094846711 0.018887296 0.066859245
-0.0094846711 0.021161228 0.065378234
-0.007077029 0.019800026 0.066859245
-0.007077029 0.021161228 0.066069767
-0.0094846711 0.016345944 0.067768693
-0.0094846711 0.018753584 0.066918701
-0.007077029 0.018753584 0.067304716
-0.0022617429 0.011530656 0.069142282
-0.0022617429 0.016345944 0.068381071
-0.0046693869 0.020439178 0.066859245
-0.0046693869 0.021161228 0.066472962
-0.0022617429 0.020913277 0.066859245
-0.0022617429 0.021161228 0.066738665
-0.0046693869 0.016345944 0.068233103
-0.0046693869 0.018753584 0.067551136
-0.0022617429 0.018753584 0.067728609
-0.011892315 0.021473937 0.057228673
-0.011892315 0.021377623 0.059636313
-0.0094846711 0.023145553 0.057228673
-0.0086665824 0.023568872 0.057228673
-0.007077029 0.024334118 0.057228673
-0.0094846711 0.023015674 0.059636313
-0.0083952937 0.023568872 0.059636313
-0.007077029 0.024208952 0.059636313
-0.011892315 0.021318994 0.062043954
-0.0094846711 0.022847351 0.062043954
-0.0078787282 0.023568872 0.062043954
-0.007077029 0.023901902 0.062043954
-0.0094846711 0.021965161 0.064451605
-0.007077029 0.022836439 0.064451605
-0.007077029 0.023568872 0.063109547
-0.0046693869 0.025557786 0.057228673
-0.0038396269 0.025976513 0.057228673
-0.0046693869 0.025513254 0.059636313
-0.0038083158 0.025976513 0.059636313
-0.0022617429 0.026726861 0.057228673
-0.0022617429 0.026691925 0.059636313
0.00014589727 0.027588118 0.057228673
0.00014589727 0.027404744 0.059636313
-0.0046693869 0.024983063 0.062043954
-0.0022617429 0.0259565 0.062043954
-0.0022617429 0.025976513 0.062003117
-0.0046924539 0.023568872 0.064451605
-0.0046693869 0.023576003 0.064451605
-0.0022617429 0.024281003 0.064451605
-0.0022005215 0.025976513 0.062043954
0.00014589727 0.024796452 0.064451605
0.00014589727 0.025976513 0.063003168
0.00014589727 0.026548963 0.062043954
-0.0046693869 0.023568872 0.064460099
-0.0022617429 0.023568872 0.065125376
-0.00076112524 0.021161228 0.066859245
0.00014589727 0.021306746 0.066859245
0.00014589727 0.023568872 0.065507576
0.00014589727 0.021161228 0.066924959
0.0049611852 -0.019609118 0.0090758204
0.0049611852 -0.017361052 0.0081006261
0.0073688254 -0.019174894 0.0090758204
0.0073688254 -0.017361052 0.0082320245
0.0049611852 -0.021634471 0.011483463
0.0049611852 -0.019768694 0.0091908704
0.0073688254 -0.021278895 0.011483463
0.0073688254 -0.019768694 0.0095336828
0.0097764693 -0.018521184 0.0090758204
0.0097764693 -0.017361052 0.0085011572
0.01218411 -0.017654451 0.0090758204
0.01218411 -0.017361052 0.0089193778
0.0097764693 -0.020720011 0.011483463
0.0097764693 -0.019768694 0.010137074
0.01218411 -0.019977942 0.011483463
0.01218411 -0.019768694 0.011135099
0.0049611852 -0.02246042 0.013891106
0.0049611852 -0.022176336 0.012817793
0.0072636791 -0.022176336 0.013891106
0.0049611852 -0.022843689 0.016298749
0.0073688254 -0.022570204 0.016298749
0.0073688254 -0.022176336 0.01396855
0.0094563626 -0.022176336 0.016298749
0.0073688254 -0.022158254 0.013891106
0.0097764693 -0.021660352 0.013891106
0.01218411 -0.020952595 0.013891106
0.0097764693 -0.022107251 0.016298749
0.01218411 -0.021443818 0.016298749
0.012869634 -0.017361052 0.0090758204
0.012775321 -0.019768694 0.011483463
0.014591753 -0.019011285 0.011483463
0.014591753 -0.017361052 0.0096209515
0.016999397 -0.017614275 0.011483463
0.016999397 -0.017361052 0.011119266
0.017359503 -0.017361052 0.011483463
0.014591753 -0.019993048 0.013891106
0.014591753 -0.019768694 0.013156148
0.015079405 -0.019768694 0.013891106
0.016999397 -0.018693602 0.013891106
0.014591753 -0.020465584 0.016298749
0.015988693 -0.019768694 0.016298749
0.016999397 -0.019182401 0.016298749
0.018817458 -0.017361052 0.013891106
0.019407038 -0.017402442 0.016298749
0.019407038 -0.017361052 0.016030384
0.019456405 -0.017361052 0.016298749
0.0049611852 -0.0060508717 0.0066681784
0.0049611852 -0.0053228401 0.0064737219
0.0073688254 -0.0055227093 0.0066681784
0.0073688254 -0.0053228401 0.0066161584
0.0049611852 -0.0029151961 0.0059734108
0.0073688254 -0.0029151961 0.0061292015
0.0078996755 -0.0053228401 0.0066681784
0.0097764693 -0.0041796863 0.0066681784
0.0097764693 -0.0029151961 0.0064874981
0.0107392 -0.0029151961 0.0066681784
0.0049611852 -0.0005075559 0.0058338987
0.0073688254 -0.0005075559 0.0060146963
0.0097764693 -0.0005075559 0.0064202426
0.010943245 -0.0005075559 0.0066681784
0.0049611852 -0.01495341 0.0078170812
0.0073688254 -0.01495341 0.0078169266
0.0049611852 -0.012545768 0.0077240178
0.0073688254 -0.012545768 0.0076831207
0.0097764693 -0.01495341 0.0079603316
0.01218411 -0.01495341 0.0081833871
0.0097764693 -0.012545768 0.0078148944
0.01218411 -0.012545768 0.007962239
0.0049611852 -0.010138124 0.0075011393
0.0073688254 -0.010138124 0.0075038485
0.0049611852 -0.0077304821 0.0070742667
0.0073688254 -0.0077304821 0.0071588056
0.0097764693 -0.010138124 0.0076648183
0.01218411 -0.010138124 0.0078149643
0.0097764693 -0.0077304821 0.0073475325
0.01218411 -0.0077304821 0.0075378483
0.014591753 -0.016483618 0.0090758204
0.014591753 -0.01495341 0.0084976247
0.016852248 -0.01495341 0.0090758204
0.014591753 -0.012545768 0.0080598742
0.016999397 -0.014838308 0.0090758204
0.016999397 -0.012545768 0.0083171837
0.016999397 -0.01495341 0.0091296947
0.019407038 -0.01277858 0.0090758204
0.019407038 -0.012545768 0.0089724548
0.019656066 -0.012545768 0.0090758204
0.019407038 -0.015704846 0.011483463
0.019407038 -0.01495341 0.010584807
0.020230174 -0.01495341 0.011483463
0.021814682 -0.013330566 0.011483463
0.021814682 -0.012545768 0.010620846
0.014591753 -0.010138124 0.0078296736
0.016999397 -0.010138124 0.0079007838
0.014591753 -0.0077304821 0.007623204
0.016999397 -0.0077304821 0.0076445723
0.019407038 -0.010138124 0.0082093077
0.021814682 -0.010163693 0.0090758204
0.021814682 -0.010138124 0.0090646381
0.019407038 -0.0077304821 0.0077347569
0.021814682 -0.0077304821 0.0081977975
0.019407038 -0.016868923 0.013891106
0.021468356 -0.01495341 0.013891106
0.021814682 -0.014597509 0.013891106
0.021814682 -0.015164403 0.016298749
0.021814682 -0.01495341 0.015183846
0.0097764693 -0.0053228401 0.006885156
0.01218411 -0.0053228401 0.0071964245
0.01218411 -0.0029151961 0.0069590136
0.01218411 -0.0005075559 0.0069536446
0.014591753 -0.0053228401 0.0074511506
0.016999397 -0.0053228401 0.0074856244
0.014591753 -0.0029151961 0.0073749926
0.016999397 -0.0029151961 0.0074585844
0.019407038 -0.0053228401 0.0073900633
0.021814682 -0.0053228401 0.0075811669
0.019407038 -0.0029151961 0.0072638709
0.021814682 -0.0029151961 0.0072295973
0.014591753 -0.0005075559 0.0074488455
0.016999397 -0.0005075559 0.0075867986
0.019407038 -0.0005075559 0.0073525915
0.021814682 -0.0005075559 0.0071405321
0.022476953 -0.012545768 0.011483463
0.021834493 -0.010138124 0.0090758204
0.023536757 -0.0077304821 0.0090758204
0.02414247 -0.010138124 0.011483463
0.024222326 -0.010002831 0.011483463
0.024222326 -0.0077304821 0.0096643893
0.025503483 -0.0077304821 0.011483463
0.023551993 -0.012545768 0.013891106
0.022019494 -0.01495341 0.016298749
0.024037231 -0.012545768 0.016298749
0.024222326 -0.011559075 0.013891106
0.024222326 -0.010138124 0.011632525
0.025057867 -0.010138124 0.013891106
0.026313461 -0.0077304821 0.013891106
0.024222326 -0.012272051 0.016298749
0.025460232 -0.010138124 0.016298749
0.026618216 -0.0077304821 0.016298749
0.024222326 -0.0066186544 0.0090758204
0.024222326 -0.0053228401 0.0085261483
0.024970062 -0.0053228401 0.0090758204
0.024222326 -0.0029151961 0.0078055225
0.026045181 -0.0029151961 0.0090758204
0.026629966 -0.0054246727 0.011483463
0.026629966 -0.0053228401 0.011384364
0.026629966 -0.0029151961 0.0098028546
0.026673581 -0.0053228401 0.011483463
0.027479891 -0.0029151961 0.011483463
0.024222326 -0.0005075559 0.0074685104
0.02655052 -0.0005075559 0.0090758204
0.026629966 -0.0005075559 0.0091729648
0.027839374 -0.0005075559 0.011483463
0.026629966 -0.0070586372 0.013891106
0.026629966 -0.0077047125 0.016298749
0.027373847 -0.0053228401 0.013891106
0.02811319 -0.0029151961 0.013891106
0.027654748 -0.0053228401 0.016298749
0.02840611 -0.0029151961 0.016298749
0.028439675 -0.0005075559 0.013891106
0.028762322 -0.0005075559 0.016298749
0.0049611852 -0.023052085 0.018706391
0.0073688254 -0.022795435 0.018706391
0.0049611852 -0.023146175 0.021114033
0.0073688254 -0.02289927 0.021114033
0.0097764693 -0.02234759 0.018706391
0.0097764693 -0.022176336 0.016883753
0.010539912 -0.022176336 0.018706391
0.0097764693 -0.022492979 0.021114033
0.01120089 -0.022176336 0.021114033
0.01218411 -0.021710966 0.018706391
0.01218411 -0.021889769 0.021114033
0.0049611852 -0.023055268 0.023521677
0.0073688254 -0.022854742 0.023521677
0.0049611852 -0.022792984 0.025929319
0.0073688254 -0.02264775 0.025929319
0.0097764693 -0.02248678 0.023521677
0.011211891 -0.022176336 0.023521677
0.0097764693 -0.022310253 0.025929319
0.010440171 -0.022176336 0.025929319
0.01218411 -0.021905042 0.023521677
0.01218411 -0.021727771 0.025929319
0.014591753 -0.02070063 0.018706391
0.016347565 -0.019768694 0.018706391
0.016999397 -0.019383054 0.018706391
0.014591753 -0.020858569 0.021114033
0.01652272 -0.019768694 0.021114033
0.016999397 -0.019472409 0.021114033
0.019407038 -0.017646346 0.018706391
0.019753385 -0.017361052 0.018706391
0.019407038 -0.017720835 0.021114033
0.019847341 -0.017361052 0.021114033
0.014591753 -0.020907661 0.023521677
0.016569227 -0.019768694 0.023521677
0.016999397 -0.019485621 0.023521677
0.014591753 -0.020788856 0.025929319
0.016468827 -0.019768694 0.025929319
0.016999397 -0.019422974 0.025929319
0.019407038 -0.017665807 0.023521677
0.019776374 -0.017361052 0.023521677
0.019407038 -0.017551268 0.025929319
0.019630294 -0.017361052 0.025929319
0.0049611852 -0.022480078 0.028336961
0.0073688254 -0.022318231 0.028336961
0.0049611852 -0.022275615 0.030744605
0.0062101483 -0.022176336 0.030744605
0.0073688254 -0.022176336 0.029381923
0.0087178126 -0.022176336 0.028336961
0.0097764693 -0.022176336 0.027181137
0.0073688254 -0.022043463 0.030744605
0.0097764693 -0.022031451 0.028336961
0.01218411 -0.021497138 0.028336961
0.0097764693 -0.021681489 0.030744605
0.01218411 -0.021139037 0.030744605
0.0049611852 -0.022235282 0.033152245
0.0056219101 -0.022176336 0.033152245
0.0049611852 -0.022176336 0.034924403
0.0073688254 -0.021892468 0.033152245
0.0097764693 -0.021310614 0.033152245
0.01218411 -0.020633431 0.033152245
0.014591753 -0.020603353 0.028336961
0.016248234 -0.019768694 0.028336961
0.016999397 -0.019302895 0.028336961
0.014591753 -0.020305477 0.030744605
0.015757516 -0.019768694 0.030744605
0.016999397 -0.019024367 0.030744605
0.019407038 -0.017400406 0.028336961
0.019451849 -0.017361052 0.028336961
0.019056037 -0.017361052 0.030744605
0.019407038 -0.017361052 0.028768178
0.014591753 -0.01984152 0.033152245
0.014782459 -0.019768694 0.033152245
0.016999397 -0.018588796 0.033152245
0.014591753 -0.019768694 0.033496402
0.018495385 -0.017361052 0.033152245
0.021814682 -0.015443271 0.018706391
0.021814682 -0.015541529 0.021114033
0.021814682 -0.015471997 0.023521677
0.021814682 -0.015282299 0.025929319
0.021814682 -0.015073966 0.028336961
0.019407038 -0.017046716 0.030744605
0.021629073 -0.01495341 0.030744605
0.021814682 -0.01495341 0.029505413
0.021814682 -0.014763225 0.030744605
0.019407038 -0.016508253 0.033152245
0.021077346 -0.01495341 0.033152245
0.021814682 -0.014258243 0.033152245
0.022288691 -0.01495341 0.018706391
0.024222326 -0.012605364 0.018706391
0.024222326 -0.012545768 0.01812776
0.024262335 -0.012545768 0.018706391
0.022384878 -0.01495341 0.021114033
0.024222326 -0.012746323 0.021114033
0.024360128 -0.012545768 0.021114033
0.025615059 -0.010138124 0.018706391
0.026629966 -0.0078992136 0.018706391
0.026629966 -0.0077304821 0.016501565
0.025711775 -0.010138124 0.021114033
0.026629966 -0.0080551859 0.021114033
0.026704978 -0.0077304821 0.018706391
0.026771586 -0.0077304821 0.021114033
0.022316292 -0.01495341 0.023521677
0.024222326 -0.012717918 0.023521677
0.024349231 -0.012545768 0.023521677
0.022124279 -0.01495341 0.025929319
0.024222016 -0.012545768 0.025929319
0.024222326 -0.012545768 0.025925303
0.025833104 -0.010138124 0.023521677
0.026629966 -0.008437749 0.023521677
0.024222326 -0.012545386 0.025929319
0.025968339 -0.010138124 0.025929319
0.026629966 -0.0089548007 0.025929319
0.026938926 -0.0077304821 0.023521677
0.027196024 -0.0077304821 0.025929319
0.027742703 -0.0053228401 0.018706391
0.028520916 -0.0029151961 0.018706391
0.027787041 -0.0053228401 0.021114033
0.028529774 -0.0029151961 0.021114033
0.028919119 -0.0005075559 0.018706391
0.028940011 -0.0005075559 0.021114033
0.027884346 -0.0053228401 0.023521677
0.028534394 -0.0029151961 0.023521677
0.028050695 -0.0053228401 0.025929319
0.028631683 -0.0029151961 0.025929319
0.028918926 -0.0005075559 0.023521677
0.028979246 -0.0005075559 0.025929319
0.021925382 -0.01495341 0.028336961
0.024059061 -0.012545768 0.028336961
0.023908664 -0.012545768 0.030744605
0.024222326 -0.012357319 0.028336961
0.026055068 -0.010138124 0.028336961
0.026629966 -0.0092882849 0.028336961
0.024222326 -0.01220003 0.030744605
0.026010063 -0.010138124 0.030744605
0.026629966 -0.0092724059 0.030744605
0.027430337 -0.0077304821 0.028336961
0.027455177 -0.0077304821 0.030744605
0.023582123 -0.012545768 0.033152245
0.024222326 -0.011869688 0.033152245
0.025730323 -0.010138124 0.033152245
0.026629966 -0.0088543352 0.033152245
0.027219471 -0.0077304821 0.033152245
0.028250057 -0.0053228401 0.028336961
0.028818447 -0.0029151961 0.028336961
0.028297108 -0.0053228401 0.030744605
0.028874863 -0.0029151961 0.030744605
0.029037606 -0.0016549192 0.028336961
0.029037606 -0.0005075559 0.026882458
0.029146183 -0.0005075559 0.028336961
0.029037606 -0.002049949 0.030744605
0.029199835 -0.0005075559 0.030744605
0.028085303 -0.0053228401 0.033152245
0.028654028 -0.0029151961 0.033152245
0.028979909 -0.0005075559 0.033152245
0.029037606 -0.0005075559 0.032732714
0.0049611852 -0.021881368 0.037967533
0.0073688254 -0.02152 0.037967533
0.0049611852 -0.021676004 0.040375173
0.0073688254 -0.02134259 0.040375173
0.0097764693 -0.020778447 0.037967533
0.01218411 -0.019865103 0.037967533
0.0097764693 -0.02067619 0.040375173
0.012052201 -0.019768694 0.040375173
0.01218411 -0.019768694 0.039324619
0.01218411 -0.019714482 0.040375173
0.0049611852 -0.021596003 0.042782817
0.0073688254 -0.021300513 0.042782817
0.0049611852 -0.021649245 0.045190457
0.0073688254 -0.02137823 0.045190457
0.0097764693 -0.020638561 0.042782817
0.011834331 -0.019768694 0.042782817
0.01218411 -0.019608915 0.042782817
0.0097764693 -0.020634178 0.045190457
0.011720896 -0.019768694 0.045190457
0.01218411 -0.019547671 0.045190457
0.012455184 -0.019768694 0.037967533
0.014591753 -0.019046834 0.037967533
0.016999397 -0.017928185 0.037967533
0.014591753 -0.018774634 0.040375173
0.016999397 -0.017506847 0.040375173
0.017793555 -0.017361052 0.037967533
0.017206214 -0.017361052 0.040375173
0.014591753 -0.018556509 0.042782817
0.016866688 -0.017361052 0.042782817
0.016999397 -0.017361052 0.041363161
0.014591753 -0.018463209 0.045190457
0.016875945 -0.017361052 0.045190457
0.0049611852 -0.021697121 0.047598101
0.0073688254 -0.021422831 0.047598101
0.0049611852 -0.021536605 0.050005745
0.0073688254 -0.021298971 0.050005745
0.0097764693 -0.02063608 0.047598101
0.011788499 -0.019768694 0.047598101
0.01218411 -0.019592082 0.047598101
0.0097764693 -0.020630714 0.050005745
0.012105115 -0.019768694 0.050005745
0.01218411 -0.019738058 0.050005745
0.0049611852 -0.021273857 0.052413385
0.0073688254 -0.021099795 0.052413385
0.0049611852 -0.021193136 0.054821029
0.0073688254 -0.021076698 0.054821029
0.0097764693 -0.020576006 0.052413385
0.01218411 -0.019815033 0.052413385
0.01218411 -0.019768694 0.050451785
0.0097764693 -0.020553058 0.054821029
0.012077346 -0.019768694 0.054821029
0.01218411 -0.019768694 0.054064564
0.01218411 -0.01973021 0.054821029
0.014591753 -0.018508835 0.047598101
0.01687533 -0.017361052 0.047598101
0.014591753 -0.018668421 0.050005745
0.016972952 -0.017361052 0.050005745
0.012318511 -0.019768694 0.052413385
0.014591753 -0.018832386 0.052413385
0.016999397 -0.017511286 0.052413385
0.016999397 -0.017361052 0.050252147
0.014591753 -0.018793497 0.054821029
0.016999397 -0.017482007 0.054821029
0.017239533 -0.017361052 0.052413385
0.017180312 -0.017361052 0.054821029
0.019407038 -0.015798947 0.037967533
0.020135872 -0.01495341 0.037967533
0.021814682 -0.012917953 0.037967533
0.019407038 -0.015346296 0.040375173
0.019741233 -0.01495341 0.040375173
0.021526836 -0.012545768 0.040375173
0.021814682 -0.012545768 0.038905919
0.021814682 -0.012132805 0.040375173
0.016999397 -0.017276498 0.042782817
0.016999397 -0.017293267 0.045190457
0.019407038 -0.015294462 0.042782817
0.019722987 -0.01495341 0.042782817
0.021604791 -0.012545768 0.042782817
0.019407038 -0.015497005 0.045190457
0.01991874 -0.01495341 0.045190457
0.021814682 -0.012582509 0.045190457
0.021814682 -0.012545768 0.044558778
0.021814682 -0.012256343 0.042782817
0.016999397 -0.017291166 0.047598101
0.016999397 -0.017345071 0.050005745
0.019407038 -0.015537379 0.047598101
0.019973774 -0.01495341 0.047598101
0.021814682 -0.01260907 0.047598101
0.019407038 -0.015591139 0.050005745
0.020049296 -0.01495341 0.050005745
0.021814682 -0.012678547 0.050005745
0.019407038 -0.015697794 0.052413385
0.020125508 -0.01495341 0.052413385
0.021814682 -0.012757281 0.052413385
0.019407038 -0.015583631 0.054821029
0.020041049 -0.01495341 0.054821029
0.021814682 -0.012763625 0.054821029
0.02211538 -0.012545768 0.037967533
0.024072163 -0.010138124 0.037967533
0.024222326 -0.010138124 0.037628781
0.024222326 -0.0099608414 0.037967533
0.026001181 -0.0077304821 0.037967533
0.026629966 -0.0077304821 0.035979953
0.023386877 -0.010138124 0.040375173
0.024222326 -0.0091958661 0.040375173
0.025428105 -0.0077304821 0.040375173
0.021842618 -0.012545768 0.045190457
0.023533374 -0.010138124 0.042782817
0.024222326 -0.0093290936 0.042782817
0.025373418 -0.0077304821 0.042782817
0.023737922 -0.010138124 0.045190457
0.024222326 -0.0094936602 0.045190457
0.025304779 -0.0077304821 0.045190457
0.026629966 -0.0066760257 0.037967533
0.026629966 -0.005695587 0.040375173
0.027250964 -0.0053228401 0.037967533
0.02795304 -0.0029151961 0.037967533
0.026803885 -0.0053228401 0.040375173
0.027579974 -0.0029151961 0.040375173
0.028185036 -0.0005075559 0.037967533
0.027723748 -0.0005075559 0.040375173
0.026536737 -0.0053228401 0.042782817
0.026629966 -0.0053228401 0.041814588
0.026629966 -0.0050756447 0.042782817
0.02630616 -0.0053228401 0.045190457
0.026629966 -0.0043124408 0.045190457
0.027263675 -0.0029151961 0.042782817
0.02701984 -0.0029151961 0.045190457
0.02750222 -0.0005075559 0.042782817
0.027458739 -0.0005075559 0.045190457
0.021860458 -0.012545768 0.047598101
0.021906763 -0.012545768 0.050005745
0.023620192 -0.010138124 0.047598101
0.024222326 -0.009264823 0.047598101
0.025106154 -0.0077304821 0.047598101
0.02356397 -0.010138124 0.050005745
0.024222326 -0.0090905745 0.050005745
0.024957031 -0.0077304821 0.050005745
0.021961261 -0.012545768 0.052413385
0.021959983 -0.012545768 0.054821029
0.023514483 -0.010138124 0.052413385
0.024222326 -0.0088932551 0.052413385
0.024841864 -0.0077304821 0.052413385
0.02339175 -0.010138124 0.054821029
0.024222326 -0.0086726248 0.054821029
0.024778482 -0.0077304821 0.054821029
0.026117373 -0.0053228401 0.047598101
0.026629966 -0.0037409514 0.047598101
0.026042633 -0.0053228401 0.050005745
0.026629966 -0.0037685446 0.050005745
0.026866678 -0.0029151961 0.047598101
0.026905525 -0.0029151961 0.050005745
0.027429979 -0.0005075559 0.047598101
0.027536038 -0.0005075559 0.050005745
0.02601409 -0.0053228401 0.052413385
0.026629966 -0.0038106702 0.052413385
0.026016366 -0.0053228401 0.054821029
0.026629966 -0.0036115721 0.054821029
0.026944008 -0.0029151961 0.052413385
0.026849698 -0.0029151961 0.054821029
0.027686249 -0.0005075559 0.052413385
0.027644519 -0.0005075559 0.054821029
0.0049611852 -0.021299718 0.057228673
0.0073688254 -0.021223076 0.057228673
0.0049611852 -0.021406647 0.059636313
0.0073688254 -0.021300443 0.059636313
0.0097764693 -0.020669425 0.057228673
0.012054071 -0.019768694 0.057228673
0.01218411 -0.019714659 0.057228673
0.0097764693 -0.020745635 0.059636313
0.01218411 -0.019800279 0.059636313
0.01218411 -0.019768694 0.058491793
0.0049611852 -0.021317266 0.062043954
0.0073688254 -0.021106038 0.062043954
0.0049611852 -0.020598313 0.064451605
0.0073688254 -0.020307887 0.064451605
0.0097764693 -0.020515747 0.062043954
0.011877418 -0.019768694 0.062043954
0.01218411 -0.019768694 0.061009008
0.01218411 -0.019648634 0.062043954
0.0095190965 -0.019768694 0.064451605
0.0097764693 -0.019768694 0.064310312
0.0097764693 -0.019691281 0.064451605
0.01218411 -0.018791236 0.064451605
0.014591753 -0.018690027 0.057228673
0.016844422 -0.017361052 0.057228673
0.016999397 -0.017361052 0.056065988
0.012259226 -0.019768694 0.059636313
0.014591753 -0.018682636 0.059636313
0.016610444 -0.017361052 0.059636313
0.014591753 -0.018474204 0.062043954
0.016198911 -0.017361052 0.062043954
0.014591753 -0.017442755 0.064451605
0.014711481 -0.017361052 0.064451605
0.0049611852 -0.019768694 0.065567821
0.0073688254 -0.019768694 0.065245897
0.0049611852 -0.01795065 0.066859245
0.0073688254 -0.017703936 0.066859245
0.0049611852 -0.017361052 0.067119867
0.0073688254 -0.017361052 0.067022473
0.0088046752 -0.017361052 0.066859245
0.0097764693 -0.017361052 0.06668745
0.01218411 -0.017361052 0.065975726
0.014591753 -0.017361052 0.064557239
0.016999397 -0.017244304 0.057228673
0.016999397 -0.017040299 0.059636313
0.019407038 -0.015237702 0.057228673
0.019725982 -0.01495341 0.057228673
0.021814682 -0.012608724 0.057228673
0.019372929 -0.01495341 0.059636313
0.019407038 -0.01495341 0.059351616
0.019407038 -0.014922787 0.059636313
0.021634929 -0.012545768 0.059636313
0.021814682 -0.012545768 0.057722885
0.021814682 -0.012312116 0.059636313
0.016999397 -0.016694648 0.062043954
0.016999397 -0.015515024 0.064451605
0.018936407 -0.01495341 0.062043954
0.019407038 -0.014508417 0.062043954
0.021278426 -0.012545768 0.062043954
0.017609205 -0.01495341 0.064451605
0.019407038 -0.013213059 0.064451605
0.020045109 -0.012545768 0.064451605
0.021814682 -0.011912087 0.062043954
0.021814682 -0.010464154 0.064451605
0.0049611852 -0.01495341 0.067912251
0.0073688254 -0.01495341 0.067831814
0.0049611852 -0.012545768 0.068388939
0.0073688254 -0.012545768 0.068300352
0.0097764693 -0.017031377 0.066859245
0.01218411 -0.015824949 0.066859245
0.0097764693 -0.01495341 0.067607075
0.01218411 -0.01495341 0.067185283
0.0097764693 -0.012545768 0.068109751
0.01218411 -0.012545768 0.067811593
0.0073688254 -0.0077304821 0.068896353
0.01218411 -0.0077304821 0.06851092
0.01340948 -0.01495341 0.066859245
0.014591753 -0.01495341 0.066446692
0.016999397 -0.01495341 0.0650305
0.014591753 -0.013973594 0.066859245
0.016076885 -0.012545768 0.066859245
0.016999397 -0.012545768 0.066500992
0.014591753 -0.012545768 0.067313582
0.019407038 -0.012545768 0.065059781
0.016999397 -0.0077304821 0.067680478
0.018167216 -0.010138124 0.066859245
0.016999397 -0.011544384 0.066859245
0.019407038 -0.010138124 0.066348568
0.021814682 -0.010138124 0.064708084
0.019407038 -0.0083586033 0.066859245
0.019792851 -0.0077304821 0.066859245
0.021814682 -0.0077304821 0.065891847
0.016999397 -0.010138124 0.067241758
0.019407038 -0.0077304821 0.066994876
0.01218411 -0.0029151961 0.068876922
0.016999397 -0.0029151961 0.068160459
0.020944256 -0.0053228401 0.066859245
0.021814682 -0.0053228401 0.066474929
0.021596201 -0.0029151961 0.066859245
0.021814682 -0.0029151961 0.066769153
0.016999397 -0.0053228401 0.067960292
0.019407038 -0.0053228401 0.067379788
0.019407038 -0.0029151961 0.067603201
0.021857817 -0.012545768 0.057228673
0.023388121 -0.010138124 0.057228673
0.024222326 -0.0087923426 0.057228673
0.024881601 -0.0077304821 0.057228673
0.023439068 -0.010138124 0.059636313
0.024222326 -0.0090256464 0.059636313
0.025023784 -0.0077304821 0.059636313
0.023238003 -0.010138124 0.062043954
0.024222326 -0.0087357238 0.062043954
0.024796043 -0.0077304821 0.062043954
0.02205779 -0.010138124 0.064451605
0.023545194 -0.0077304821 0.064451605
0.024222326 -0.0077304821 0.063499376
0.026078951 -0.0053228401 0.057228673
0.026629966 -0.0035450868 0.057228673
0.026112456 -0.0053228401 0.059636313
0.026629966 -0.0035296604 0.059636313
0.026799407 -0.0029151961 0.057228673
0.026778188 -0.0029151961 0.059636313
0.027497943 -0.0005075559 0.057228673
0.027338628 -0.0005075559 0.059636313
0.025801651 -0.0053228401 0.062043954
0.026423059 -0.0029151961 0.062043954
0.026629966 -0.0029151961 0.061158348
0.024222326 -0.0061701015 0.064451605
0.024516851 -0.0053228401 0.064451605
0.025117945 -0.0029151961 0.064451605
0.026629966 -0.0018125586 0.062043954
0.025445588 -0.0005075559 0.064451605
0.026629966 -0.0005075559 0.062580273
0.026843343 -0.0005075559 0.062043954
0.024222326 -0.0053228401 0.064765528
0.024222326 -0.0029151961 0.065317631
0.021892674 -0.0005075559 0.066859245
0.021814682 -0.0013821498 0.066859245
0.024222326 -0.0005075559 0.065562934
0.021814682 -0.0005075559 0.066890284
0.0049611852 0.004307732 0.0061636465
0.0073688254 0.004307732 0.006440144
0.0049611852 0.0067153722 0.0065468131
0.0064301454 0.0067153722 0.0066681784
0.0073688254 0.006047193 0.0066681784
0.0085685067 0.004307732 0.0066681784
0.0097764693 0.001989048 0.0066681784
0.0049611852 0.007292904 0.0066681784
0.0073688254 0.0067153722 0.0067706509
0.0097764693 0.004307732 0.0069323769
0.01218411 0.004307732 0.007388657
0.0097764693 0.0067153722 0.0070808185
0.01218411 0.0067153722 0.0073139863
0.0049611852 0.0091230161 0.0070285704
0.0073688254 0.0091230161 0.0071194153
0.0049611852 0.011530656 0.0072690407
0.0073688254 0.011530656 0.0072532184
0.0097764693 0.0091230161 0.0071572652
0.01218411 0.0091230161 0.0071779378
0.0097764693 0.011530656 0.007149687
0.01218411 0.011530656 0.0071056709
0.014591753 0.004307732 0.0075909607
0.016999397 0.004307732 0.007546002
0.014591753 0.0067153722 0.0073644361
0.016999397 0.0067153722 0.0073174359
0.019407038 0.004307732 0.0073594721
0.021814682 0.004307732 0.0072554238
0.019407038 0.0067153722 0.00727678
0.021814682 0.0067153722 0.0074147573
0.014591753 0.0091230161 0.0071826186
0.016999397 0.0091230161 0.0072305519
0.014591753 0.011530656 0.0071609737
0.016999397 0.011530656 0.0073272241
0.019407038 0.0091230161 0.0073651727
0.021814682 0.0091230161 0.0077248532
0.019407038 0.011530656 0.007612139
0.021814682 0.011530656 0.0081722215
0.0049611852 0.0139383 0.0072427122
0.0073688254 0.0139383 0.0071472153
0.0049611852 0.016345944 0.0072657643
0.0073688254 0.016345944 0.0071117571
0.0097764693 0.0139383 0.0070342813
0.01218411 0.0139383 0.0070596477
0.0097764693 0.016345944 0.0070355413
0.01218411 0.016345944 0.0071609737
0.0049611852 0.018753584 0.0075632846
0.0073688254 0.018753584 0.007413839
0.0049611852 0.021161228 0.0082405247
0.0073688254 0.021161228 0.0082095126
0.0097764693 0.018753584 0.0074166423
0.01218411 0.018753584 0.0076377727
0.0097764693 0.021161228 0.0083773369
0.01218411 0.021161228 0.0087613855
0.014591753 0.0139383 0.007261565
0.016999397 0.0139383 0.0075775255
0.014591753 0.016345944 0.0075013721
0.016999397 0.016345944 0.0079772109
0.019407038 0.0139383 0.0079910811
0.021814682 0.0139383 0.0088095618
0.019407038 0.016345944 0.0086256964
0.020502333 0.016345944 0.0090758204
0.021814682 0.014676709 0.0090758204
0.021814682 0.016345944 0.0099324239
0.014591753 0.018753584 0.0080773775
0.016999397 0.018753584 0.0087455893
0.013537813 0.021161228 0.0090758204
0.014591753 0.020736016 0.0090758204
0.016999397 0.01940814 0.0090758204
0.014591753 0.021161228 0.0093850056
0.016999397 0.021161228 0.01048601
0.017890856 0.018753584 0.0090758204
0.019407038 0.017443895 0.0090758204
0.019407038 0.018753584 0.0098650372
0.021178711 0.018753584 0.011483463
0.021814682 0.018084511 0.011483463
0.018271692 0.021161228 0.011483463
0.019407038 0.020326562 0.011483463
0.021814682 0.018753584 0.012424695
0.019407038 0.021161228 0.012934685
0.01990566 0.021161228 0.013891106
0.021814682 0.01947961 0.013891106
0.020732369 0.021161228 0.016298749
0.021814682 0.020216368 0.016298749
0.024222326 0.004307732 0.0077119265
0.026212145 0.004307732 0.0090758204
0.024222326 0.0067153722 0.0081635136
0.02554094 0.0067153722 0.0090758204
0.026629966 0.004307732 0.0095699411
0.026629966 0.0067153722 0.010373356
0.02766652 0.004307732 0.011483463
0.027255084 0.0067153722 0.011483463
0.024222326 0.0091230161 0.008770356
0.024654351 0.0091230161 0.0090758204
0.023586165 0.011530656 0.0090758204
0.024222326 0.010134853 0.0090758204
0.026628528 0.0091230161 0.011483463
0.026629966 0.0091180839 0.011483463
0.024222326 0.011530656 0.0095777381
0.025783308 0.011530656 0.011483463
0.028337207 0.004307732 0.013891106
0.028068978 0.0067153722 0.013891106
0.028668631 0.004307732 0.016298749
0.028427895 0.0067153722 0.016298749
0.026629966 0.0091230161 0.011485978
0.026629966 0.011530656 0.013193324
0.027607996 0.0091230161 0.013891106
0.0268717 0.011530656 0.013891106
0.028036494 0.0091230161 0.016298749
0.027398366 0.011530656 0.016298749
0.022289291 0.0139383 0.0090758204
0.024222326 0.0139383 0.010860068
0.024656255 0.0139383 0.011483463
0.023213282 0.016345944 0.011483463
0.024222326 0.01474259 0.011483463
0.025822647 0.0139383 0.013891106
0.026629966 0.012161233 0.013891106
0.024222326 0.016345944 0.013394414
0.02441027 0.016345944 0.013891106
0.026435047 0.0139383 0.016298749
0.026629966 0.013512615 0.016298749
0.025071047 0.016345944 0.016298749
0.022516485 0.018753584 0.013891106
0.024222326 0.01662644 0.013891106
0.023249909 0.018753584 0.016298749
0.024222326 0.017564408 0.016298749
0.0049611852 0.022959318 0.0090758204
0.0073688254 0.022740923 0.0090758204
0.0049611852 0.023568872 0.0094370339
0.0073688254 0.023568872 0.0096541736
0.0049611852 0.025814772 0.011483463
0.0073688254 0.025404077 0.011483463
0.0097764693 0.022274628 0.0090758204
0.01218411 0.021621257 0.0090758204
0.0097764693 0.023568872 0.010157004
0.01218411 0.023568872 0.010980947
0.0097764693 0.024751697 0.011483463
0.01218411 0.023955803 0.011483463
0.0049611852 0.025976513 0.011682302
0.0073688254 0.025976513 0.012245948
0.0097764693 0.025976513 0.013339425
0.010652795 0.025976513 0.013891106
0.01218411 0.025434181 0.013891106
0.01218411 0.025976513 0.015125524
0.0049611852 0.027316127 0.013891106
0.0073688254 0.026930276 0.013891106
0.0049611852 0.028120723 0.016298749
0.0073688254 0.027802464 0.016298749
0.0097764693 0.026265714 0.013891106
0.0097764693 0.027179357 0.016298749
0.01218411 0.026359987 0.016298749
0.013287872 0.023568872 0.011483463
0.014591753 0.023085695 0.011483463
0.016999397 0.021947682 0.011483463
0.014591753 0.023568872 0.012243051
0.016317114 0.023568872 0.013891106
0.016999397 0.023183543 0.013891106
0.014591753 0.024434406 0.013891106
0.016999397 0.023568872 0.015048211
0.013162091 0.025976513 0.016298749
0.014591753 0.025305372 0.016298749
0.016999397 0.02387692 0.016298749
0.019407038 0.021549307 0.013891106
0.017477605 0.023568872 0.016298749
0.019407038 0.022210095 0.016298749
0.021180395 0.021161228 0.018706391
0.021814682 0.020603057 0.018706391
0.021387298 0.021161228 0.021114033
0.021814682 0.020773191 0.021114033
0.021435373 0.021161228 0.023521677
0.021814682 0.020812523 0.023521677
0.021435842 0.021161228 0.025929319
0.021814682 0.020823654 0.025929319
0.021504141 0.021161228 0.028336961
0.021814682 0.020884432 0.028336961
0.021546837 0.021161228 0.030744605
0.021814682 0.020903904 0.030744605
0.021376982 0.021161228 0.033152245
0.021814682 0.020730291 0.033152245
0.028829072 0.004307732 0.018706391
0.028558392 0.0067153722 0.018706391
0.028860275 0.004307732 0.021114033
0.028549101 0.0067153722 0.021114033
0.02816556 0.0091230161 0.018706391
0.027561385 0.011530656 0.018706391
0.028121065 0.0091230161 0.021114033
0.027528409 0.011530656 0.021114033
0.028804604 0.004307732 0.023521677
0.028486628 0.0067153722 0.023521677
0.028793316 0.004307732 0.025929319
0.028498676 0.0067153722 0.025929319
0.028073352 0.0091230161 0.023521677
0.027502734 0.011530656 0.023521677
0.028118063 0.0091230161 0.025929319
0.027548242 0.011530656 0.025929319
0.026629966 0.0139383 0.017966282
0.025387544 0.016345944 0.018706391
0.026629966 0.014027435 0.018706391
0.025496341 0.016345944 0.021114033
0.026629966 0.014126044 0.021114033
0.026668686 0.0139383 0.018706391
0.026705887 0.0139383 0.021114033
0.023624629 0.018753584 0.018706391
0.024222326 0.018020011 0.018706391
0.023769494 0.018753584 0.021114033
0.024222326 0.018195454 0.021114033
0.025549248 0.016345944 0.023521677
0.026629966 0.014150593 0.023521677
0.025606446 0.016345944 0.025929319
0.026629966 0.014233753 0.025929319
0.02671307 0.0139383 0.023521677
0.026745614 0.0139383 0.025929319
0.023824453 0.018753584 0.023521677
0.024222326 0.018273186 0.023521677
0.023880515 0.018753584 0.025929319
0.024222326 0.018348865 0.025929319
0.028916385 0.004307732 0.028336961
0.029037606 0.0029556043 0.028336961
0.02864534 0.0067153722 0.028336961
0.028993648 0.004307732 0.030744605
0.029037606 0.0037741326 0.030744605
0.028735545 0.0067153722 0.030744605
0.028244998 0.0091230161 0.028336961
0.027644809 0.011530656 0.028336961
0.028320845 0.0091230161 0.030744605
0.02767526 0.011530656 0.030744605
0.028856311 0.004307732 0.033152245
0.028618302 0.0067153722 0.033152245
0.028223734 0.0091230161 0.033152245
0.02755468 0.011530656 0.033152245
0.025693219 0.016345944 0.028336961
0.026629966 0.014444217 0.028336961
0.025703415 0.016345944 0.030744605
0.026629966 0.014486425 0.030744605
0.026829604 0.0139383 0.028336961
0.026843462 0.0139383 0.030744605
0.023955513 0.018753584 0.028336961
0.024222326 0.018440712 0.028336961
0.023926523 0.018753584 0.030744605
0.024222326 0.018411584 0.030744605
0.025463607 0.016345944 0.033152245
0.026629966 0.014005899 0.033152245
0.026629966 0.0139383 0.033371158
0.02665716 0.0139383 0.033152245
0.02371341 0.018753584 0.033152245
0.024222326 0.018142521 0.033152245
0.0049611852 0.028384153 0.01765837
0.006404765 0.028384153 0.018706391
0.0073688254 0.02823494 0.018706391
0.0049611852 0.028515194 0.018706391
0.0070785396 0.028384153 0.021114033
0.0073688254 0.028332096 0.021114033
0.0049611852 0.028655443 0.021114033
0.0097764693 0.027625341 0.018706391
0.01218411 0.026781071 0.018706391
0.0097764693 0.027724478 0.021114033
0.01218411 0.026850935 0.021114033
0.0070329867 0.028384153 0.023521677
0.0073688254 0.028322551 0.023521677
0.0049611852 0.028700765 0.023521677
0.0073688254 0.028384153 0.025270142
0.0049611852 0.028786037 0.025929319
0.0073688254 0.028427463 0.025929319
0.0097764693 0.027746562 0.023521677
0.01218411 0.026879217 0.023521677
0.0076218285 0.028384153 0.025929319
0.0097764693 0.02788404 0.025929319
0.01218411 0.027015183 0.025929319
0.014057267 0.025976513 0.018706391
0.014591753 0.025705159 0.018706391
0.016999397 0.024241328 0.018706391
0.014180884 0.025976513 0.021114033
0.014591753 0.025773123 0.021114033
0.016999397 0.024379808 0.021114033
0.018018395 0.023568872 0.018706391
0.019407038 0.022581968 0.018706391
0.018276215 0.023568872 0.021114033
0.019407038 0.022778168 0.021114033
0.014197052 0.025976513 0.023521677
0.014591753 0.025780655 0.023521677
0.016999397 0.02441556 0.023521677
0.014446866 0.025976513 0.025929319
0.014591753 0.025903177 0.025929319
0.016999397 0.024504155 0.025929319
0.018360682 0.023568872 0.023521677
0.019407038 0.022840638 0.023521677
0.018412851 0.023568872 0.025929319
