# .PCD v0.7 - Point Cloud Data file format
VERSION 0.7
FIELDS x y z
SIZE 4 4 4
TYPE F F F
COUNT 1 1 1
WIDTH 1300
HEIGHT 1
VIEWPOINT 0 0 0 1 0 0 0
POINTS 1300
DATA ascii
-0.0012846813 0.042118773 0.032576174
-0.0029639676 0.042018689 0.034544561
-0.0024233684 0.042118773 0.034544561
-0.014774311 0.031422153 0.036512952
-0.01280592 0.032048628 0.036512952
-0.014774311 0.031605475 0.038481344
-0.01280592 0.032218523 0.038481344
-0.011961415 0.032276817 0.036512952
-0.010837529 0.032556228 0.036512952
-0.0088691413 0.032992408 0.036512952
-0.012595095 0.032276817 0.038481344
-0.010837529 0.032740317 0.038481344
-0.0088691413 0.033195198 0.038481344
-0.014774311 0.031594142 0.040449735
-0.01280592 0.032221742 0.040449735
-0.012622859 0.032276817 0.040449735
-0.010837529 0.032790057 0.040449735
-0.0088691413 0.033269487 0.040449735
-0.0069007501 0.033331521 0.036512952
-0.0049323589 0.033567876 0.036512952
-0.0069007501 0.033526741 0.038481344
-0.0049323589 0.033752516 0.038481344
-0.0029639676 0.033730693 0.036512952
-0.0029639676 0.033945575 0.038481344
-0.0069007501 0.033633254 0.040449735
-0.0049323589 0.033912733 0.040449735
-0.0029639676 0.034166582 0.040449735
-0.0023480803 0.034245208 0.040449735
-0.0029639676 0.034245208 0.041194666
-0.014774311 0.039627768 0.036512952
-0.01280592 0.040141068 0.036512952
-0.014774311 0.039481148 0.038481344
-0.01280592 0.040047988 0.038481344
-0.012765225 0.040150382 0.036512952
-0.010837529 0.040591374 0.036512952
-0.0088691413 0.041020371 0.036512952
-0.012410618 0.040150382 0.038481344
-0.010837529 0.040569775 0.038481344
-0.0088691413 0.041090317 0.038481344
-0.014774311 0.039464012 0.040449735
-0.01280592 0.040078655 0.040449735
-0.01280592 0.040150382 0.041122623
-0.012559582 0.040150382 0.040449735
-0.010837529 0.040668473 0.040449735
-0.0088691413 0.041231923 0.040449735
-0.0069007501 0.04141017 0.036512952
-0.0049323589 0.041771501 0.036512952
-0.0069007501 0.041553974 0.038481344
-0.0049323589 0.041928962 0.038481344
-0.0030614547 0.042118773 0.036512952
-0.0029639676 0.042118773 0.03619118
-0.0037414245 0.042118773 0.038481344
-0.0029639676 0.042137519 0.036512952
-0.0029639676 0.042238019 0.038481344
-0.0069007501 0.041721337 0.040449735
-0.0049323589 0.042084135 0.040449735
-0.0049323589 0.042118773 0.040930793
-0.0046717785 0.042118773 0.040449735
-0.0029639676 0.042286322 0.040449735
-0.043562263 0.00078256428 0.044386517
-0.043394893 0.0027509555 0.044386517
-0.043017298 0.00078256428 0.046354908
-0.043020152 0.0027509555 0.046354908
-0.043203011 0.0047193468 0.044386517
-0.042876154 0.006687738 0.044386517
-0.042925667 0.0047193468 0.046354908
-0.042599183 0.006687738 0.046354908
-0.042863913 0.00078256428 0.0483233
-0.043032832 0.0027509555 0.0483233
-0.043115281 0.00078256428 0.050291691
-0.04327707 0.0027509555 0.050291691
-0.042956412 0.0047193468 0.0483233
-0.042566344 0.006687738 0.0483233
-0.043117993 0.0047193468 0.050291691
-0.042658929 0.006687738 0.050291691
-0.038395002 9.6835196e-05 0.044386517
-0.038358375 0.00078256428 0.044386517
-0.038111944 0.0027509555 0.044386517
-0.038835905 0.00078256428 0.046354908
-0.038395002 0.00078256428 0.044539388
-0.038510773 0.0027509555 0.046354908
-0.038395002 0.0027509555 0.045717869
-0.037709631 0.0047193468 0.044386517
-0.037249349 0.006687738 0.044386517
-0.038395002 0.0033730119 0.046354908
-0.038121402 0.0047193468 0.046354908
-0.037641123 0.006687738 0.046354908
-0.039125975 0.00078256428 0.0483233
-0.038686208 0.0027509555 0.0483233
-0.03908046 0.00078256428 0.050291691
-0.038697124 0.0027509555 0.050291691
-0.038395002 0.0041494444 0.0483233
-0.038284715 0.0047193468 0.0483233
-0.037824646 0.006687738 0.0483233
-0.038395002 0.0043985471 0.050291691
-0.038338825 0.0047193468 0.050291691
-0.037896745 0.006687738 0.050291691
-0.042331785 0.0085432827 0.044386517
-0.042331785 0.0086561292 0.044107761
-0.042291313 0.0086561292 0.044386517
-0.04160887 0.01062452 0.044386517
-0.042331785 0.0077685118 0.046354908
-0.042079657 0.0086561292 0.046354908
-0.041511185 0.01062452 0.046354908
-0.041012973 0.012592912 0.044386517
-0.040415689 0.014561303 0.044386517
-0.040988661 0.012592912 0.046354908
-0.040409148 0.014561303 0.046354908
-0.042331785 0.0076502636 0.0483233
-0.04209245 0.0086561292 0.0483233
-0.041616272 0.01062452 0.0483233
-0.042331785 0.0080723464 0.050291691
-0.042210259 0.0086561292 0.050291691
-0.041779336 0.01062452 0.050291691
-0.041143548 0.012592912 0.0483233
-0.040630203 0.014561303 0.0483233
-0.041316759 0.012592912 0.050291691
-0.040815093 0.014561303 0.050291691
-0.036714643 0.0086561292 0.044386517
-0.036426611 0.0086561292 0.043001089
-0.036426611 0.0095278099 0.044386517
-0.037066426 0.0086561292 0.046354908
-0.036426611 0.010500588 0.046354908
-0.036006607 0.01062452 0.044386517
-0.036379904 0.01062452 0.046354908
-0.035135403 0.012592912 0.044386517
-0.03445822 0.014006294 0.044386517
-0.034171179 0.014561303 0.044386517
-0.035520375 0.012592912 0.046354908
-0.034498431 0.014561303 0.046354908
-0.03445822 0.014561303 0.045944396
-0.037217066 0.0086561292 0.0483233
-0.036537804 0.01062452 0.0483233
-0.036426611 0.01062452 0.046727795
-0.037266307 0.0086561292 0.050291691
-0.036551349 0.01062452 0.050291691
-0.036426611 0.010921866 0.0483233
-0.036426611 0.010936446 0.050291691
-0.035615347 0.012592912 0.0483233
-0.034483522 0.014561303 0.0483233
-0.035542682 0.012592912 0.050291691
-0.03445822 0.014412768 0.050291691
-0.03445822 0.014561303 0.048639376
-0.034378044 0.014561303 0.050291691
-0.043356895 0.00078256428 0.052260082
-0.04334411 0.0027509555 0.052260082
-0.043430232 0.00078256428 0.054228473
-0.043279406 0.0027509555 0.054228473
-0.043076806 0.0047193468 0.052260082
-0.04266014 0.006687738 0.052260082
-0.043002676 0.0047193468 0.054228473
-0.042735521 0.006687738 0.054228473
-0.043572523 0.00078256428 0.056196865
-0.043383397 0.0027509555 0.056196865
-0.044199601 0.00078256428 0.058165256
-0.043992303 0.0027509555 0.058165256
-0.043169841 0.0047193468 0.056196865
-0.043050878 0.006687738 0.056196865
-0.043793537 0.0047193468 0.058165256
-0.043691587 0.006687738 0.058165256
-0.039062705 0.00078256428 0.052260082
-0.038775429 0.0027509555 0.052260082
-0.039235394 0.00078256428 0.054228473
-0.038939435 0.0027509555 0.054228473
-0.038444467 0.0047193468 0.052260082
-0.038395002 0.0047193468 0.051413406
-0.038395002 0.0049858615 0.052260082
-0.037994213 0.006687738 0.052260082
-0.038521796 0.0047193468 0.054228473
-0.038395002 0.005235821 0.054228473
-0.038007036 0.006687738 0.054228473
-0.039376762 0.00078256428 0.056196865
-0.039067321 0.0027509555 0.056196865
-0.039160088 0.00078256428 0.058165256
-0.038929421 0.0027509555 0.058165256
-0.038514595 0.0047193468 0.056196865
-0.038395002 0.0050950497 0.056196865
-0.037901796 0.006687738 0.056196865
-0.038418598 0.0047193468 0.058165256
-0.038395002 0.0047953278 0.058165256
-0.037788711 0.006687738 0.058165256
-0.042331785 0.0084911808 0.052260082
-0.042305104 0.0086561292 0.052260082
-0.04193189 0.01062452 0.052260082
-0.042486362 0.0086561292 0.054228473
-0.042331785 0.0086561292 0.052712407
-0.042331785 0.0097245201 0.054228473
-0.042171523 0.01062452 0.054228473
-0.041455686 0.012592912 0.052260082
-0.040900268 0.014561303 0.052260082
-0.041695364 0.012592912 0.054228473
-0.041064709 0.014561303 0.054228473
-0.042876266 0.0086561292 0.056196865
-0.042553321 0.01062452 0.056196865
-0.042331785 0.01062452 0.05515423
-0.043499105 0.0086561292 0.058165256
-0.043085232 0.01062452 0.058165256
-0.042331785 0.011598676 0.056196865
-0.042054411 0.012592912 0.056196865
-0.04133347 0.014561303 0.056196865
-0.042445019 0.012592912 0.058165256
-0.042331785 0.012592912 0.057605755
-0.042331785 0.01289326 0.058165256
-0.041627444 0.014561303 0.058165256
-0.03734054 0.0086561292 0.052260082
-0.036554497 0.01062452 0.052260082
-0.037358843 0.0086561292 0.054228473
-0.036564071 0.01062452 0.054228473
-0.036426611 0.010915026 0.052260082
-0.036426611 0.01093813 0.054228473
-0.03551748 0.012592912 0.052260082
-0.03445822 0.014531933 0.052260082
-0.034444101 0.014561303 0.052260082
-0.035611801 0.012592912 0.054228473
-0.034668159 0.014561303 0.054228473
-0.03445822 0.014561303 0.052417468
-0.037260778 0.0086561292 0.056196865
-0.036555856 0.01062452 0.056196865
-0.037134856 0.0086561292 0.058165256
-0.036518127 0.01062452 0.058165256
-0.036426611 0.010973729 0.056196865
-0.036426611 0.010930106 0.058165256
-0.035783209 0.012592912 0.056196865
-0.034954265 0.014561303 0.056196865
-0.035891116 0.012592912 0.058165256
-0.035130471 0.014561303 0.058165256
-0.040363394 0.014735281 0.044386517
-0.040363394 0.014707632 0.046354908
-0.040363394 0.015456378 0.0483233
-0.040363394 0.016009554 0.050291691
-0.03980438 0.016529687 0.044386517
-0.039042301 0.018498078 0.044386517
-0.039757285 0.016529687 0.046354908
-0.039037373 0.018498078 0.046354908
-0.032965135 0.016529687 0.044386517
-0.032489829 0.017268881 0.044386517
-0.03445822 0.01463642 0.046354908
-0.033232808 0.016529687 0.046354908
-0.032489829 0.017531738 0.046354908
-0.038395002 0.019915402 0.044386517
-0.038118578 0.020466469 0.044386517
-0.036915127 0.02243486 0.044386517
-0.038395002 0.020151347 0.046354908
-0.038261317 0.020466469 0.046354908
-0.037189614 0.02243486 0.046354908
-0.039984569 0.016529687 0.0483233
-0.039175741 0.018498078 0.0483233
-0.040169783 0.016529687 0.050291691
-0.039300941 0.018498078 0.050291691
-0.03445822 0.014608182 0.0483233
-0.033267565 0.016529687 0.0483233
-0.032489829 0.017600149 0.0483233
-0.033244967 0.016529687 0.050291691
-0.032489829 0.017635852 0.050291691
-0.038395002 0.020411924 0.0483233
-0.038372718 0.020466469 0.0483233
-0.037358902 0.02243486 0.0483233
-0.038432267 0.020466469 0.050291691
-0.038395002 0.020466469 0.048908886
-0.038395002 0.02055575 0.050291691
-0.037443779 0.02243486 0.050291691
-0.036426611 0.023138799 0.044386517
-0.036426611 0.023572564 0.046354908
-0.035445653 0.024403252 0.044386517
-0.03445822 0.025574394 0.044386517
-0.033770166 0.026371643 0.044386517
-0.035808928 0.024403252 0.046354908
-0.03445822 0.026055984 0.046354908
-0.034189675 0.026371643 0.046354908
-0.032489829 0.027841792 0.044386517
-0.032489829 0.02823931 0.046354908
-0.036426611 0.023841888 0.0483233
-0.036426611 0.023972534 0.050291691
-0.036014557 0.024403252 0.0483233
-0.03445822 0.026322968 0.0483233
-0.034416191 0.026371643 0.0483233
-0.036104836 0.024403252 0.050291691
-0.034496479 0.026371643 0.050291691
-0.03445822 0.026371643 0.049138229
-0.032526191 0.028340034 0.0483233
-0.032489829 0.028340034 0.0474975
-0.032489829 0.028375693 0.0483233
-0.03445822 0.02641625 0.050291691
-0.032619204 0.028340034 0.050291691
-0.032489829 0.028470382 0.050291691
-0.040363394 0.01617936 0.052260082
-0.040363394 0.016444877 0.054228473
-0.040493689 0.016529687 0.056196865
-0.040363394 0.016529687 0.054685395
-0.040363394 0.016835056 0.056196865
-0.040742487 0.016529687 0.058165256
-0.040363394 0.017450005 0.058165256
-0.04023052 0.016529687 0.052260082
-0.039342463 0.018498078 0.052260082
-0.0403293 0.016529687 0.054228473
-0.039430268 0.018498078 0.054228473
-0.033432752 0.016529687 0.052260082
-0.032489829 0.01788193 0.052260082
-0.03445822 0.015077554 0.054228473
-0.033799469 0.016529687 0.054228473
-0.032489829 0.018325791 0.054228473
-0.038450189 0.020466469 0.052260082
-0.038395002 0.020600975 0.052260082
-0.037503071 0.02243486 0.052260082
-0.038550228 0.020466469 0.054228473
-0.038395002 0.020860679 0.054228473
-0.037656642 0.02243486 0.054228473
-0.0396301 0.018498078 0.056196865
-0.0399414 0.018498078 0.058165256
-0.03445822 0.015804261 0.056196865
-0.034132089 0.016529687 0.056196865
-0.032680508 0.018498078 0.056196865
-0.032489829 0.018498078 0.054994393
-0.03445822 0.016111962 0.058165256
-0.034251973 0.016529687 0.058165256
-0.032785587 0.018498078 0.058165256
-0.038813528 0.020466469 0.056196865
-0.038395002 0.021525078 0.056196865
-0.037958946 0.02243486 0.056196865
-0.039148569 0.020466469 0.058165256
-0.038395002 0.022208586 0.058165256
-0.038282596 0.02243486 0.058165256
-0.032489829 0.018704213 0.056196865
-0.032489829 0.01881557 0.058165256
-0.036426611 0.024067886 0.052260082
-0.036426611 0.02425731 0.054228473
-0.036167718 0.024403252 0.052260082
-0.034537226 0.026371643 0.052260082
-0.036308344 0.024403252 0.054228473
-0.034650825 0.026371643 0.054228473
-0.03445822 0.026466191 0.052260082
-0.032746665 0.028340034 0.052260082
-0.032489829 0.028610647 0.052260082
-0.03445822 0.02660425 0.054228473
-0.032907285 0.028340034 0.054228473
-0.032489829 0.028778575 0.054228473
-0.036615025 0.024403252 0.056196865
-0.036426611 0.024403252 0.055119548
-0.036426611 0.024632335 0.056196865
-0.037031267 0.024403252 0.058165256
-0.036426611 0.0251773 0.058165256
-0.034937624 0.026371643 0.056196865
-0.035405517 0.026371643 0.058165256
-0.03445822 0.026929714 0.056196865
-0.033175409 0.028340034 0.056196865
-0.032489829 0.029049225 0.056196865
-0.03445822 0.027422838 0.058165256
-0.033592127 0.028340034 0.058165256
-0.032489829 0.029417902 0.058165256
-0.048333097 0.00078256428 0.0699756
-0.048236955 0.00078256428 0.069039628
-0.048345648 0.0027509555 0.0699756
-0.048236955 0.0027509555 0.068998814
-0.048271101 0.0047193468 0.0699756
-0.048236955 0.0047193468 0.069581419
-0.048236955 0.0051010102 0.0699756
-0.048236955 0.00078256428 0.071449637
-0.048236955 0.0027509555 0.071566015
-0.048236955 0.0047193468 0.071160883
-0.04518225 0.00078256428 0.06013364
-0.044300172 0.00078256428 0.058389883
-0.044991732 0.0027509555 0.06013364
-0.044300172 0.0027509555 0.058831688
-0.046068043 0.00078256428 0.062102031
-0.045968361 0.0027509555 0.062102031
-0.044757441 0.0047193468 0.06013364
-0.044300172 0.0047193468 0.059249628
-0.044547964 0.006687738 0.06013364
-0.044300172 0.006687738 0.059588175
-0.045754917 0.0047193468 0.062102031
-0.045460328 0.006687738 0.062102031
-0.046772219 0.00078256428 0.064070418
-0.046268564 0.00078256428 0.062641799
-0.046735011 0.0027509555 0.064070418
-0.046268564 0.0027509555 0.062834531
-0.047441036 0.00078256428 0.066038817
-0.04742901 0.0027509555 0.066038817
-0.046593837 0.0047193468 0.064070418
-0.046268564 0.0047193468 0.063269764
-0.046314448 0.006687738 0.064070418
-0.046268564 0.006687738 0.063957959
-0.047335926 0.0047193468 0.066038817
-0.047074534 0.006687738 0.066038817
-0.038665049 0.00078256428 0.06013364
-0.038518853 0.0027509555 0.06013364
-0.038395002 0.00078256428 0.061211448
-0.038190726 0.00078256428 0.062102031
-0.038395002 0.0027509555 0.060660351
-0.038062781 0.0027509555 0.062102031
-0.038395002 0.0036646724 0.06013364
-0.038395002 0.0047193468 0.058462296
-0.038190994 0.0047193468 0.06013364
-0.037665796 0.006687738 0.06013364
-0.037848353 0.0047193468 0.062102031
-0.037477806 0.006687738 0.062102031
-0.037823718 0.00078256428 0.064070418
-0.037680618 0.0027509555 0.064070418
-0.037804872 0.00078256428 0.066038817
-0.037648067 0.0027509555 0.066038817
-0.037512474 0.0047193468 0.064070418
-0.037249871 0.006687738 0.064070418
-0.037476663 0.0047193468 0.066038817
-0.037246265 0.006687738 0.066038817
-0.044300172 0.0084015355 0.06013364
-0.045042828 0.0086561292 0.062102031
-0.044300172 0.0086561292 0.060257833
-0.044457778 0.01062452 0.062102031
-0.044300172 0.01062452 0.061671223
-0.044252299 0.0086561292 0.06013364
-0.043747503 0.01062452 0.06013364
-0.044300172 0.011075281 0.062102031
-0.042982243 0.012592912 0.06013364
-0.042331785 0.01402384 0.06013364
-0.042087786 0.014561303 0.06013364
-0.043687284 0.012592912 0.062102031
-0.042769752 0.014561303 0.062102031
-0.042331785 0.014561303 0.060894433
-0.046268564 0.0069370866 0.064070418
-0.045858435 0.0086561292 0.064070418
-0.04519853 0.01062452 0.064070418
-0.046589084 0.0086561292 0.066038817
-0.046268564 0.0086561292 0.065140337
-0.046268564 0.0096445903 0.066038817
-0.045910031 0.01062452 0.066038817
-0.044403255 0.012592912 0.064070418
-0.044300172 0.012592912 0.063779488
-0.044300172 0.012831897 0.064070418
-0.045073237 0.012592912 0.066038817
-0.044300172 0.014369443 0.066038817
-0.043526087 0.014561303 0.064070418
-0.044219662 0.014561303 0.066038817
-0.037048608 0.0086561292 0.06013364
-0.036473468 0.01062452 0.06013364
-0.036981661 0.0086561292 0.062102031
-0.036449362 0.01062452 0.062102031
-0.036426611 0.010794558 0.06013364
-0.036426611 0.010706909 0.062102031
-0.035880633 0.012592912 0.06013364
-0.0351118 0.014561303 0.06013364
-0.035824511 0.012592912 0.062102031
-0.034996465 0.014561303 0.062102031
-0.036880247 0.0086561292 0.064070418
-0.036426611 0.010536641 0.064070418
-0.036426611 0.01062452 0.063288376
-0.036946937 0.0086561292 0.066038817
-0.03651116 0.01062452 0.066038817
-0.036426611 0.01062452 0.065249935
-0.036402434 0.01062452 0.064070418
-0.036426611 0.010921523 0.066038817
-0.035740744 0.012592912 0.064070418
-0.034863286 0.014561303 0.064070418
-0.035819814 0.012592912 0.066038817
-0.034904279 0.014561303 0.066038817
-0.048025087 0.00078256428 0.068007201
-0.048025303 0.0027509555 0.068007201
-0.047945224 0.0047193468 0.068007201
-0.047680587 0.006687738 0.068007201
-0.047977291 0.006687738 0.0699756
-0.048114471 0.00078256428 0.071943983
-0.048142385 0.0027509555 0.071943983
-0.046674564 0.00078256428 0.073912382
-0.046776101 0.0027509555 0.073912382
-0.040973805 0.00078256428 0.071943983
-0.040363394 0.00078256428 0.07122384
-0.04072706 0.0027509555 0.071943983
-0.040363394 0.0027509555 0.071509048
-0.043221481 0.00078256428 0.073912382
-0.042331785 0.00078256428 0.073282018
-0.042982146 0.0027509555 0.073912382
-0.042331785 0.0027509555 0.073476523
-0.0480773 0.0047193468 0.071943983
-0.04773698 0.006687738 0.071943983
-0.04671903 0.0047193468 0.073912382
-0.046274401 0.006687738 0.073912382
-0.040445209 0.0047193468 0.071943983
-0.040363394 0.0047193468 0.071842194
-0.040363394 0.0055660978 0.071943983
-0.042633422 0.0047193468 0.073912382
-0.042331785 0.0047193468 0.073721394
-0.042446628 0.006687738 0.073912382
-0.042331785 0.006687738 0.073843598
-0.040363394 0.006687738 0.072027668
-0.038395002 0.00025132298 0.068007201
-0.038356621 0.00078256428 0.068007201
-0.038185459 0.0027509555 0.068007201
-0.039450072 0.00078256428 0.0699756
-0.038395002 0.00078256428 0.068093061
-0.039249841 0.0027509555 0.0699756
-0.038395002 0.0027509555 0.068469763
-0.03799285 0.0047193468 0.068007201
-0.037784714 0.006687738 0.068007201
-0.039028652 0.0047193468 0.0699756
-0.038395002 0.0047193468 0.068875819
-0.038871162 0.006687738 0.0699756
-0.038395002 0.006687738 0.069210336
-0.04029718 0.006687738 0.071943983
-0.047156662 0.0086561292 0.068007201
-0.046446964 0.01062452 0.068007201
-0.046268564 0.01062452 0.067256078
-0.047389645 0.0086561292 0.0699756
-0.046651296 0.01062452 0.0699756
-0.046268564 0.011083052 0.068007201
-0.045634255 0.012592912 0.068007201
-0.044765525 0.014561303 0.068007201
-0.044300172 0.014561303 0.066291064
-0.046268564 0.01163321 0.0699756
-0.045886554 0.012592912 0.0699756
-0.045027826 0.014561303 0.0699756
-0.047059074 0.0086561292 0.071943983
-0.046303265 0.01062452 0.071943983
-0.046268564 0.0067062005 0.073912382
-0.046268564 0.0086561292 0.073303834
-0.045529231 0.0086561292 0.073912382
-0.046268564 0.01062452 0.072035044
-0.044594005 0.01062452 0.073912382
-0.042331785 0.0083104521 0.073912382
-0.04229369 0.0086561292 0.073912382
-0.040363394 0.0086561292 0.072208747
-0.04200197 0.01062452 0.073912382
-0.040363394 0.01062452 0.072665706
-0.046268564 0.01071988 0.071943983
-0.045540489 0.012592912 0.071943983
-0.044727035 0.014561303 0.071943983
-0.044300172 0.011214353 0.073912382
-0.044300172 0.012592912 0.073540077
-0.044300172 0.014561303 0.072782621
-0.043580934 0.012592912 0.073912382
-0.041498415 0.012592912 0.073912382
-0.040363394 0.012592912 0.073314235
-0.042956695 0.014561303 0.073912382
-0.040363394 0.014345929 0.073912382
-0.037553638 0.0086561292 0.068007201
-0.037159346 0.01062452 0.068007201
-0.03873723 0.0086561292 0.0699756
-0.038395002 0.0086561292 0.069470629
-0.038395002 0.010567255 0.0699756
-0.038379341 0.01062452 0.0699756
-0.036426611 0.012552328 0.068007201
-0.037569538 0.012592912 0.0699756
-0.036426611 0.012592912 0.068046793
-0.036481731 0.014561303 0.0699756
-0.036426611 0.014561303 0.069889843
-0.036407571 0.012592912 0.068007201
-0.035425588 0.014561303 0.068007201
-0.040160686 0.0086561292 0.071943983
-0.039788589 0.01062452 0.071943983
-0.038395002 0.01062452 0.069998279
-0.039000355 0.012592912 0.071943983
-0.038395002 0.012592912 0.071143404
-0.038395002 0.013710551 0.071943983
-0.037907869 0.014561303 0.071943983
-0.040186562 0.014561303 0.073912382
-0.038395002 0.014561303 0.072528407
-0.041222677 0.016529687 0.06013364
-0.040425941 0.018498078 0.06013364
-0.040363394 0.018498078 0.059922565
-0.042331785 0.015575476 0.062102031
-0.041945312 0.016529687 0.062102031
-0.04112171 0.018498078 0.062102031
-0.040363394 0.018654011 0.06013364
-0.040363394 0.020194843 0.062102031
-0.042694159 0.016529687 0.064070418
-0.042331785 0.016529687 0.063113585
-0.042331785 0.017476864 0.064070418
-0.041926704 0.018498078 0.064070418
-0.043427326 0.016529687 0.066038817
-0.042678595 0.018498078 0.066038817
-0.042331785 0.018498078 0.065104008
-0.041024357 0.020466469 0.064070418
-0.040363394 0.020466469 0.062442023
-0.040363394 0.021776289 0.064070418
-0.042331785 0.019356355 0.066038817
-0.041825507 0.020466469 0.066038817
-0.040779814 0.02243486 0.066038817
-0.040363394 0.02243486 0.064947397
-0.03445822 0.015965946 0.06013364
-0.034154251 0.016529687 0.06013364
-0.03264406 0.018498078 0.06013364
-0.03445822 0.015660405 0.062102031
-0.033959225 0.016529687 0.062102031
-0.032489829 0.018424198 0.062102031
-0.032489829 0.018498078 0.061504897
-0.039596066 0.020466469 0.06013364
-0.038676687 0.02243486 0.06013364
-0.038395002 0.02243486 0.058822725
-0.04023657 0.020466469 0.062102031
-0.039259583 0.02243486 0.062102031
-0.032489829 0.018667348 0.06013364
-0.03445822 0.015364408 0.064070418
-0.033776041 0.016529687 0.064070418
-0.032489829 0.018286854 0.064070418
-0.03445822 0.015457399 0.066038817
-0.0338706 0.016529687 0.066038817
-0.032594334 0.018498078 0.066038817
-0.032489829 0.018498078 0.065603301
-0.040013961 0.02243486 0.064070418
-0.032489829 0.018648863 0.066038817
-0.040363394 0.023171194 0.066038817
-0.038395002 0.022979036 0.06013364
-0.037526853 0.024403252 0.06013364
-0.036426611 0.025862686 0.06013364
-0.038395002 0.023994751 0.062102031
-0.03813988 0.024403252 0.062102031
-0.036673188 0.026371643 0.062102031
-0.036426611 0.026371643 0.061423976
-0.035994951 0.026371643 0.06013364
-0.036426611 0.026663512 0.062102031
-0.03445822 0.028028496 0.06013364
-0.034148447 0.028340034 0.06013364
-0.032489829 0.029815704 0.06013364
-0.034848057 0.028340034 0.062102031
-0.03445822 0.028340034 0.061072733
-0.03445822 0.028716505 0.062102031
-0.032597955 0.030308425 0.062102031
-0.032489829 0.030308425 0.061865289
-0.038859051 0.024403252 0.064070418
-0.038395002 0.024403252 0.062832594
-0.038395002 0.02511932 0.064070418
-0.037493184 0.026371643 0.064070418
-0.039613958 0.024403252 0.066038817
-0.038395002 0.026240282 0.066038817
-0.038302608 0.026371643 0.066038817
-0.036426611 0.027660973 0.064070418
-0.03673169 0.028340034 0.066038817
-0.036426611 0.028340034 0.065353483
-0.036426611 0.028681025 0.066038817
-0.035796642 0.028340034 0.064070418
-0.03445822 0.029633202 0.064070418
-0.033689097 0.030308425 0.064070418
-0.034799799 0.030308425 0.066038817
-0.03445822 0.030308425 0.065399095
-0.044300172 0.01574073 0.068007201
-0.044300172 0.016466402 0.0699756
-0.044015929 0.016529687 0.068007201
-0.043312997 0.018498078 0.068007201
-0.044279508 0.016529687 0.0699756
-0.043659315 0.018498078 0.0699756
-0.042505406 0.020466469 0.068007201
-0.042331785 0.020466469 0.067467153
-0.042331785 0.020837106 0.068007201
-0.041490749 0.02243486 0.068007201
-0.042959496 0.020466469 0.0699756
-0.042331785 0.021874271 0.0699756
-0.042043563 0.02243486 0.0699756
-0.044300172 0.015779302 0.071943983
-0.044079408 0.016529687 0.071943983
-0.043552451 0.018498078 0.071943983
-0.042821065 0.016529687 0.073912382
-0.042575732 0.018498078 0.073912382
-0.042960256 0.020466469 0.071943983
-0.042331785 0.022089981 0.071943983
-0.042175516 0.02243486 0.071943983
-0.042331785 0.019743577 0.073912382
-0.042331785 0.020466469 0.073667988
-0.042162895 0.020466469 0.073912382
-0.041516446 0.02243486 0.073912382
-0.036426611 0.014665119 0.0699756
-0.034459144 0.016529687 0.068007201
-0.03445822 0.016529687 0.0680051
-0.03445822 0.016531602 0.068007201
-0.033404388 0.018498078 0.068007201
-0.035516948 0.016529687 0.0699756
-0.034561228 0.018498078 0.0699756
-0.03445822 0.018498078 0.069812223
-0.032489829 0.019952744 0.068007201
-0.03445822 0.018702224 0.0699756
-0.033449978 0.020466469 0.0699756
-0.032489829 0.020466469 0.068555579
-0.032489829 0.021821648 0.0699756
-0.036861613 0.016529687 0.071943983
-0.036426611 0.016529687 0.071335241
-0.036426611 0.017445825 0.071943983
-0.038714342 0.016529687 0.073912382
-0.038395002 0.016529687 0.07365185
-0.038395002 0.017072774 0.073912382
-0.037553824 0.018498078 0.073912382
-0.036426611 0.018498078 0.072686166
-0.035888717 0.018498078 0.071943983
-0.036426611 0.020204395 0.073912382
-0.034746248 0.020466469 0.071943983
-0.03445822 0.020466469 0.07149227
-0.03445822 0.020941049 0.071943983
-0.033417534 0.02243486 0.071943983
-0.032489829 0.02243486 0.070659623
-0.036252074 0.020466469 0.073912382
-0.035003841 0.02243486 0.073912382
-0.03445822 0.02243486 0.073295042
-0.040363394 0.024318203 0.068007201
-0.040870577 0.024403252 0.0699756
-0.040363394 0.024403252 0.06816937
-0.040363394 0.025168188 0.0699756
-0.041088503 0.024403252 0.071943983
-0.040363394 0.025493167 0.071943983
-0.040498167 0.024403252 0.073912382
-0.040363394 0.02461239 0.073912382
-0.040309306 0.024403252 0.068007201
-0.038965859 0.026371643 0.068007201
-0.038395002 0.026371643 0.066287532
-0.039491709 0.026371643 0.0699756
-0.038395002 0.027143002 0.068007201
-0.037435479 0.028340034 0.068007201
-0.036426611 0.029492274 0.068007201
-0.038395002 0.027763464 0.0699756
-0.037921015 0.028340034 0.0699756
-0.036426611 0.030054241 0.0699756
-0.035659254 0.030308425 0.068007201
-0.036193907 0.030308425 0.0699756
-0.039713897 0.026371643 0.071943983
-0.039055567 0.026371643 0.073912382
-0.032489829 0.023547955 0.071943983
-0.03445822 0.023275413 0.073912382
-0.033577245 0.024403252 0.073912382
-0.032489829 0.024403252 0.072853327
-0.032489829 0.025698744 0.073912382
-0.038395002 0.028011695 0.071943983
-0.03812566 0.028340034 0.071943983
-0.036426611 0.030227222 0.071943983
-0.038395002 0.027203813 0.073912382
-0.037465632 0.028340034 0.073912382
-0.036426611 0.029460013 0.073912382
-0.036345318 0.030308425 0.071943983
-0.035431471 0.030308425 0.073912382
-0.031684946 0.018498078 0.044386517
-0.031756677 0.018498078 0.046354908
-0.030521438 0.020168245 0.044386517
-0.030308805 0.020466469 0.044386517
-0.028855041 0.02243486 0.044386517
-0.030521438 0.020062886 0.046354908
-0.030203957 0.020466469 0.046354908
-0.028681695 0.02243486 0.046354908
-0.031799074 0.018498078 0.0483233
-0.031842742 0.018498078 0.050291691
-0.030521438 0.020095453 0.0483233
-0.030231118 0.020466469 0.0483233
-0.028687712 0.02243486 0.0483233
-0.030521438 0.020220734 0.050291691
-0.030343682 0.020466469 0.050291691
-0.02887797 0.02243486 0.050291691
-0.028553046 0.022825249 0.044386517
-0.028553046 0.022602662 0.046354908
-0.027142771 0.024403252 0.044386517
-0.026584655 0.024947628 0.044386517
-0.024967011 0.026371643 0.044386517
-0.026964124 0.024403252 0.046354908
-0.026584655 0.024777286 0.046354908
-0.024826553 0.026371643 0.046354908
-0.032050822 0.028340034 0.044386517
-0.030521438 0.029923148 0.044386517
-0.030106448 0.030308425 0.044386517
-0.032393891 0.028340034 0.046354908
-0.030521438 0.030222885 0.046354908
-0.030432325 0.030308425 0.046354908
-0.024616264 0.026648492 0.044386517
-0.024616264 0.026546337 0.046354908
-0.028553046 0.022605591 0.0483233
-0.028553046 0.022848025 0.050291691
-0.026978262 0.024403252 0.0483233
-0.026584655 0.024808146 0.0483233
-0.024941921 0.026371643 0.0483233
-0.027196422 0.024403252 0.050291691
-0.026584655 0.025049344 0.050291691
-0.025258955 0.026371643 0.050291691
-0.030564003 0.030308425 0.0483233
-0.030521438 0.030308425 0.047621887
-0.030707464 0.030308425 0.050291691
-0.024616264 0.026653513 0.0483233
-0.024616264 0.026951067 0.050291691
-0.022647876 0.028020501 0.044386517
-0.022109065 0.028340034 0.044386517
-0.020679485 0.029129401 0.044386517
-0.022647876 0.027985305 0.046354908
-0.022074953 0.028340034 0.046354908
-0.020679485 0.029179625 0.046354908
-0.018711094 0.03009104 0.044386517
-0.018238828 0.030308425 0.044386517
-0.018711094 0.030291773 0.046354908
-0.01868064 0.030308425 0.046354908
-0.022647876 0.028155528 0.0483233
-0.022374175 0.028340034 0.0483233
-0.020679485 0.029485114 0.0483233
-0.022843417 0.028340034 0.050291691
-0.022647876 0.028340034 0.049489398
-0.022647876 0.028482288 0.050291691
-0.020679485 0.029967763 0.050291691
-0.019410916 0.030308425 0.0483233
-0.018711094 0.030308425 0.046453018
-0.020216715 0.030308425 0.050291691
-0.031997152 0.018498078 0.052260082
-0.032340154 0.018498078 0.054228473
-0.030521438 0.020377748 0.052260082
-0.030458882 0.020466469 0.052260082
-0.029085897 0.02243486 0.052260082
-0.03063225 0.020466469 0.054228473
-0.030521438 0.020466469 0.053066853
-0.030521438 0.020611234 0.054228473
-0.029217888 0.02243486 0.054228473
-0.030830972 0.020466469 0.056196865
-0.030521438 0.020836949 0.056196865
-0.029323488 0.02243486 0.056196865
-0.030923393 0.020466469 0.058165256
-0.030521438 0.020938113 0.058165256
-0.029400516 0.02243486 0.058165256
-0.028553046 0.023155414 0.052260082
-0.028553046 0.023384683 0.054228473
-0.027510371 0.024403252 0.052260082
-0.026584655 0.025415547 0.052260082
-0.025664106 0.026371643 0.052260082
-0.027793914 0.024403252 0.054228473
-0.026584655 0.025841102 0.054228473
-0.026091374 0.026371643 0.054228473
-0.030804496 0.030308425 0.052260082
-0.030878492 0.030308425 0.054228473
-0.024616264 0.027337149 0.052260082
-0.024616264 0.027740695 0.054228473
-0.028553046 0.023576602 0.056196865
-0.028553046 0.023743398 0.058165256
-0.02799955 0.024403252 0.056196865
-0.026584655 0.026191972 0.056196865
-0.026418015 0.026371643 0.056196865
-0.028142277 0.024403252 0.058165256
-0.026671246 0.026371643 0.058165256
-0.026584655 0.026371643 0.057482753
-0.031108342 0.030308425 0.056196865
-0.031451639 0.030308425 0.058165256
-0.024616264 0.028052144 0.056196865
-0.026584655 0.026466183 0.058165256
-0.024616264 0.028247312 0.058165256
-0.023348834 0.028340034 0.052260082
-0.022647876 0.028877728 0.052260082
-0.02088882 0.030308425 0.052260082
-0.020679485 0.030308425 0.051610198
-0.023861628 0.028340034 0.054228473
-0.022647876 0.029303499 0.054228473
-0.021435119 0.030308425 0.054228473
-0.024256494 0.028340034 0.056196865
-0.022647876 0.029606871 0.056196865
-0.021725759 0.030308425 0.056196865
-0.02449343 0.028340034 0.058165256
-0.022647876 0.029649563 0.058165256
-0.021618985 0.030308425 0.058165256
-0.032424606 0.018498078 0.062102031
-0.030843567 0.020466469 0.06013364
-0.030521438 0.020857885 0.06013364
-0.029377028 0.02243486 0.06013364
-0.030704688 0.020466469 0.062102031
-0.030521438 0.020697892 0.062102031
-0.029292949 0.02243486 0.062102031
-0.032320935 0.018498078 0.064070418
-0.030719895 0.020466469 0.064070418
-0.030521438 0.020724341 0.064070418
-0.029301818 0.02243486 0.064070418
-0.031142559 0.020466469 0.066038817
-0.030521438 0.021289565 0.066038817
-0.029682815 0.02243486 0.066038817
-0.028553046 0.023768827 0.06013364
-0.028553046 0.023633182 0.062102031
-0.02818419 0.024403252 0.06013364
-0.026858468 0.026371643 0.06013364
-0.028094951 0.024403252 0.062102031
-0.026740767 0.026371643 0.062102031
-0.031871382 0.030308425 0.06013364
-0.026584655 0.026694298 0.06013364
-0.024642564 0.028340034 0.06013364
-0.024616264 0.028340034 0.059622172
-0.024616264 0.028357044 0.06013364
-0.026584655 0.026558325 0.062102031
-0.024616264 0.028223477 0.062102031
-0.024616264 0.028340034 0.061038662
-0.028553046 0.023527779 0.064070418
-0.028553046 0.023847811 0.066038817
-0.027926419 0.024403252 0.064070418
-0.026584655 0.026056401 0.064070418
-0.026584655 0.026371643 0.062891185
-0.026289966 0.026371643 0.064070418
-0.028056171 0.024403252 0.066038817
-0.026584655 0.02594839 0.066038817
-0.026146509 0.026371643 0.066038817
-0.024616264 0.027808011 0.064070418
-0.024616264 0.027674586 0.066038817
-0.022647876 0.029518813 0.06013364
-0.021203846 0.030308425 0.06013364
-0.024420612 0.028340034 0.062102031
-0.022647876 0.029295437 0.062102031
-0.020737894 0.030308425 0.062102031
-0.023813292 0.028340034 0.064070418
-0.022647876 0.029052526 0.064070418
-0.020679485 0.030240916 0.064070418
-0.020679485 0.030308425 0.062402803
-0.023717556 0.028340034 0.066038817
-0.022647876 0.029103443 0.066038817
-0.020905629 0.030308425 0.066038817
-0.020679485 0.030308425 0.065110371
-0.020567756 0.030308425 0.064070418
-0.032133598 0.020466469 0.068007201
-0.03065338 0.02243486 0.068007201
-0.030521438 0.02243486 0.067797676
-0.032002442 0.02243486 0.0699756
-0.030521438 0.022606052 0.068007201
-0.028933529 0.024403252 0.068007201
-0.028553046 0.024403252 0.06736584
-0.028553046 0.024782255 0.068007201
-0.030521438 0.024161898 0.0699756
-0.030301239 0.024403252 0.0699756
-0.028553046 0.026176088 0.0699756
-0.026908062 0.026371643 0.068007201
-0.026584655 0.026371643 0.067450359
-0.028352387 0.026371643 0.0699756
-0.026584655 0.026668876 0.068007201
-0.024616264 0.028281771 0.068007201
-0.026584655 0.027984612 0.0699756
-0.026140731 0.028340034 0.0699756
-0.024616264 0.028340034 0.068119511
-0.024616264 0.029480524 0.0699756
-0.031736348 0.024403252 0.071943983
-0.030521438 0.024403252 0.07028693
-0.030521438 0.025784813 0.071943983
-0.029987875 0.026371643 0.071943983
-0.028553046 0.026371643 0.070227623
-0.031957135 0.026371643 0.073912382
-0.030521438 0.026371643 0.072541088
-0.028553046 0.02782286 0.071943983
-0.030521438 0.028110564 0.073912382
-0.030307662 0.028340034 0.073912382
-0.028553046 0.028340034 0.072488204
-0.028553046 0.030061804 0.073912382
-0.027994677 0.028340034 0.071943983
-0.026584655 0.028340034 0.070456743
-0.026584655 0.02953022 0.071943983
-0.025559239 0.030308425 0.071943983
-0.024616264 0.030308425 0.071108326
-0.028277747 0.030308425 0.073912382
-0.026584655 0.030308425 0.072778508
-0.02453832 0.028340034 0.068007201
-0.022647876 0.029734872 0.068007201
-0.021841384 0.030308425 0.068007201
-0.023447804 0.030308425 0.0699756
-0.022647876 0.030308425 0.069093406
-0.032489829 0.030394956 0.062102031
-0.032489829 0.031307347 0.064070418
-0.03445822 0.030619867 0.066038817
-0.032549847 0.032276817 0.066038817
-0.032489829 0.032276817 0.065936968
-0.032489829 0.032328352 0.066038817
-0.03445822 0.031480469 0.068007201
-0.033565972 0.032276817 0.068007201
-0.032489829 0.033225477 0.068007201
-0.03445822 0.032023437 0.0699756
-0.034168821 0.032276817 0.0699756
-0.032489829 0.033761531 0.0699756
-0.03445822 0.031983882 0.071943983
-0.034087978 0.032276817 0.071943983
-0.032489829 0.033612475 0.071943983
-0.03445822 0.030986987 0.073912382
-0.032539874 0.032276817 0.073912382
-0.032489829 0.032312632 0.073912382
-0.028553046 0.031654678 0.044386517
-0.028553046 0.03196124 0.046354908
-0.02774116 0.032276817 0.044386517
-0.026584655 0.033105016 0.044386517
-0.025022313 0.034245208 0.044386517
-0.024616264 0.034245208 0.043082986
-0.028136835 0.032276817 0.046354908
-0.026584655 0.033410527 0.046354908
-0.025453735 0.034245208 0.046354908
-0.024616264 0.034548 0.044386517
-0.024616264 0.03487388 0.046354908
-0.030521438 0.030351914 0.0483233
-0.028553046 0.032177083 0.0483233
-0.030521438 0.030499294 0.050291691
-0.028616477 0.032276817 0.050291691
-0.028553046 0.032276817 0.049434561
-0.028553046 0.032329448 0.050291691
-0.028428394 0.032276817 0.0483233
-0.026584655 0.033649892 0.0483233
-0.025722656 0.034245208 0.0483233
-0.026584655 0.033834971 0.050291691
-0.025962915 0.034245208 0.050291691
-0.024616264 0.034998335 0.0483233
-0.024616264 0.035074025 0.050291691
-0.016742703 0.030993439 0.044386517
-0.016742703 0.031365015 0.046354908
-0.022647876 0.036024682 0.044386517
-0.02236357 0.036213599 0.044386517
-0.020679485 0.03722439 0.044386517
-0.022722922 0.036213599 0.046354908
-0.022647876 0.036213599 0.04573803
-0.022647876 0.036259986 0.046354908
-0.020679485 0.03729783 0.046354908
-0.018752757 0.03818199 0.044386517
-0.018711094 0.03818199 0.043685842
-0.018711094 0.038137384 0.046354908
-0.018711094 0.03818199 0.045613278
-0.018600136 0.03818199 0.046354908
-0.018711094 0.030750461 0.0483233
-0.016742703 0.031949036 0.0483233
-0.018711094 0.031405292 0.050291691
-0.017377939 0.032276817 0.050291691
-0.016742703 0.032276817 0.049279492
-0.016742703 0.032627881 0.050291691
-0.022759587 0.036213599 0.0483233
-0.022647876 0.036279783 0.0483233
-0.020679485 0.03723675 0.0483233
-0.022647876 0.036204837 0.050291691
-0.022647876 0.036213599 0.050076585
-0.022630874 0.036213599 0.050291691
-0.020679485 0.037063263 0.050291691
-0.018711094 0.037988767 0.0483233
-0.018207759 0.03818199 0.0483233
-0.018711094 0.037794188 0.050291691
-0.017753486 0.03818199 0.050291691
-0.018711094 0.038200296 0.044386517
-0.016742703 0.03901913 0.044386517
-0.016742703 0.038973592 0.046354908
-0.016742703 0.038832307 0.0483233
-0.016742703 0.038655996 0.050291691
-0.030521438 0.030576706 0.052260082
-0.028622717 0.032276817 0.052260082
-0.028553046 0.032335296 0.052260082
-0.030521438 0.030617066 0.054228473
-0.028553046 0.03225074 0.054228473
-0.028553046 0.032276817 0.053612877
-0.026584655 0.033903494 0.052260082
-0.026081912 0.034245208 0.052260082
-0.028520785 0.032276817 0.054228473
-0.026584655 0.033819467 0.054228473
-0.025978103 0.034245208 0.054228473
-0.024616264 0.035123408 0.052260082
-0.024616264 0.035071597 0.054228473
-0.030521438 0.030779414 0.056196865
-0.028553046 0.03226506 0.056196865
-0.030521438 0.031016141 0.058165256
-0.028841924 0.032276817 0.058165256
-0.028553046 0.032276817 0.056381699
-0.028553046 0.032500908 0.058165256
-0.028537095 0.032276817 0.056196865
-0.026584655 0.033756122 0.056196865
-0.025904339 0.034245208 0.056196865
-0.026584655 0.034111522 0.058165256
-0.026414145 0.034245208 0.058165256
-0.024616264 0.035071485 0.056196865
-0.024616264 0.035532504 0.058165256
-0.020679485 0.030476615 0.052260082
-0.020679485 0.030935705 0.054228473
-0.018711094 0.03207396 0.052260082
-0.018437278 0.032276817 0.052260082
-0.016742703 0.033345059 0.052260082
-0.019064207 0.032276817 0.054228473
-0.018711094 0.032276817 0.052932288
-0.018711094 0.032556757 0.054228473
-0.016742703 0.033895314 0.054228473
-0.022647876 0.03611704 0.052260082
-0.022416674 0.036213599 0.052260082
-0.020679485 0.036828466 0.052260082
-0.022647876 0.036040969 0.054228473
-0.022206277 0.036213599 0.054228473
-0.020679485 0.03671284 0.054228473
-0.018711094 0.037519112 0.052260082
-0.017249983 0.03818199 0.052260082
-0.018711094 0.037352785 0.054228473
-0.016959216 0.03818199 0.054228473
-0.020679485 0.031102687 0.056196865
-0.020679485 0.030910924 0.058165256
-0.019132562 0.032276817 0.056196865
-0.018711094 0.032586791 0.056196865
-0.016742703 0.033885747 0.056196865
-0.018711094 0.032220982 0.058165256
-0.018711094 0.032276817 0.057922456
-0.018624447 0.032276817 0.058165256
-0.016742703 0.033414841 0.058165256
-0.022647876 0.036129944 0.056196865
-0.022466175 0.036213599 0.056196865
-0.020679485 0.036938809 0.056196865
-0.023479596 0.036213599 0.058165256
-0.022647876 0.036213599 0.05669402
-0.022647876 0.036676124 0.058165256
-0.020679485 0.03767363 0.058165256
-0.018711094 0.037679449 0.056196865
-0.017581716 0.03818199 0.056196865
-0.019494507 0.03818199 0.058165256
-0.018711094 0.03818199 0.057462376
-0.016742703 0.038443565 0.052260082
-0.016742703 0.038301006 0.054228473
-0.016742703 0.038614988 0.056196865
-0.018711094 0.038511366 0.058165256
-0.016742703 0.039405011 0.058165256
-0.014774311 0.03179843 0.044386517
-0.013299916 0.032276817 0.044386517
-0.01280592 0.032276817 0.043127079
-0.01280592 0.032420605 0.044386517
-0.014774311 0.032232329 0.046354908
-0.014645375 0.032276817 0.046354908
-0.01280592 0.032804526 0.046354908
-0.010837529 0.032919325 0.044386517
-0.0088691413 0.033316486 0.044386517
-0.010837529 0.033180661 0.046354908
-0.0088691413 0.033494905 0.046354908
-0.016097173 0.032276817 0.0483233
-0.014774311 0.032276817 0.046523239
-0.014774311 0.03283143 0.0483233
-0.01280592 0.033366181 0.0483233
-0.014774311 0.033498153 0.050291691
-0.01280592 0.033979945 0.050291691
-0.010837529 0.033614643 0.0483233
-0.0088691413 0.03382244 0.0483233
-0.010837529 0.034126461 0.050291691
-0.0088691413 0.034212597 0.050291691
-0.0069007501 0.03373494 0.044386517
-0.0049323589 0.034169532 0.044386517
-0.0069007501 0.033891387 0.046354908
-0.0053959191 0.034245208 0.046354908
-0.0049323589 0.034245208 0.045311522
-0.0045727976 0.034245208 0.044386517
-0.0049323589 0.034355298 0.046354908
-0.0029639676 0.03457322 0.044386517
-0.0029639676 0.034842052 0.046354908
-0.0069007501 0.034160018 0.0483233
-0.006507989 0.034245208 0.0483233
-0.0084903985 0.034245208 0.050291691
-0.0069007501 0.034245208 0.048864309
-0.0049323589 0.034614258 0.0483233
-0.0069007501 0.034469791 0.050291691
-0.0049323589 0.034891032 0.050291691
-0.0029639676 0.035130508 0.0483233
-0.0029639676 0.035344571 0.050291691
-0.014774311 0.03985469 0.044386517
-0.014101181 0.040150382 0.044386517
-0.01280592 0.040712699 0.044386517
-0.014774311 0.039927833 0.046354908
-0.014330924 0.040150382 0.046354908
-0.01280592 0.040896572 0.046354908
-0.010837529 0.041453592 0.044386517
-0.0088691413 0.041934364 0.044386517
-0.010837529 0.041691117 0.046354908
-0.0090321898 0.042118773 0.046354908
-0.0088691413 0.042118773 0.045936245
-0.0088691413 0.042145081 0.046354908
-0.014774311 0.039852709 0.0483233
-0.014203418 0.040150382 0.0483233
-0.01280592 0.040856883 0.0483233
-0.014774311 0.039703809 0.050291691
-0.013913501 0.040150382 0.050291691
-0.01280592 0.040696248 0.050291691
-0.010837529 0.041683547 0.0483233
-0.0090286657 0.042118773 0.0483233
-0.010837529 0.041536823 0.050291691
-0.0088691413 0.042038254 0.050291691
-0.0088691413 0.042118773 0.048813384
-0.0088691413 0.042144045 0.0483233
-0.0076582804 0.042118773 0.044386517
-0.0069007501 0.042118773 0.043661755
-0.0030712597 0.042118773 0.044386517
-0.0029639676 0.04210411 0.044386517
-0.0029639676 0.042118773 0.044219468
-0.0040191412 0.042118773 0.046354908
-0.0029639676 0.04192064 0.046354908
-0.0069007501 0.042198181 0.044386517
-0.0049323589 0.042263098 0.044386517
-0.0069007501 0.042316787 0.046354908
-0.0049323589 0.042236984 0.046354908
-0.0083294362 0.042118773 0.050291691
-0.0045720078 0.042118773 0.0483233
-0.0029639676 0.04181233 0.0483233
-0.0044413358 0.042118773 0.050291691
-0.0029639676 0.04192052 0.050291691
-0.0069007501 0.042293765 0.0483233
-0.0049323589 0.042169482 0.0483233
-0.0069007501 0.042232275 0.050291691
-0.0049323589 0.04216966 0.050291691
-0.014774311 0.034099162 0.052260082
-0.014231637 0.034245208 0.052260082
-0.01280592 0.034245208 0.051243115
-0.015879251 0.034245208 0.054228473
-0.014774311 0.034245208 0.052774679
-0.010837529 0.034245208 0.050764475
-0.0088691413 0.034245208 0.050457153
-0.01280592 0.034515232 0.052260082
-0.014774311 0.034571581 0.054228473
-0.01280592 0.034942403 0.054228473
-0.010837529 0.034614354 0.052260082
-0.0088691413 0.034626015 0.052260082
-0.010837529 0.035042137 0.054228473
-0.0088691413 0.035061412 0.054228473
-0.015917383 0.034245208 0.056196865
-0.014894769 0.034245208 0.058165256
-0.014774311 0.034614474 0.056196865
-0.01280592 0.03506428 0.056196865
-0.014774311 0.03428825 0.058165256
-0.01280592 0.034891598 0.058165256
-0.010837529 0.035290845 0.056196865
-0.0088691413 0.035397828 0.056196865
-0.010837529 0.035247885 0.058165256
-0.0088691413 0.035441317 0.058165256
-0.0069007501 0.034820825 0.052260082
-0.0049323589 0.035178781 0.052260082
-0.0069007501 0.035219856 0.054228473
-0.0049323589 0.035467327 0.054228473
-0.0029639676 0.035512149 0.052260082
-0.0029639676 0.035659574 0.054228473
-0.0069007501 0.035547368 0.056196865
-0.0049323589 0.035697743 0.056196865
-0.0069007501 0.035643987 0.058165256
-0.0049323589 0.035818473 0.058165256
-0.0029639676 0.035786472 0.056196865
-0.0029639676 0.035909973 0.058165256
-0.014774311 0.03955853 0.052260082
-0.01364873 0.040150382 0.052260082
-0.01280592 0.040554643 0.052260082
-0.014774311 0.039468192 0.054228473
-0.01350604 0.040150382 0.054228473
-0.01280592 0.040492743 0.054228473
-0.010837529 0.041414827 0.052260082
-0.0088691413 0.041991048 0.052260082
-0.010837529 0.041405499 0.054228473
-0.0088691413 0.0420563 0.054228473
-0.014774311 0.039664775 0.056196865
-0.013771754 0.040150382 0.056196865
-0.01280592 0.040613793 0.056196865
-0.014947269 0.040150382 0.058165256
-0.014774311 0.040150382 0.057965953
-0.014774311 0.040215872 0.058165256
-0.01280592 0.041045204 0.058165256
-0.010837529 0.041555136 0.056196865
-0.0092341416 0.042118773 0.056196865
-0.0088691413 0.042118773 0.055129658
-0.010837529 0.041904278 0.058165256
-0.010234501 0.042118773 0.058165256
-0.0088691413 0.042219661 0.056196865
-0.0088691413 0.042516291 0.058165256
-0.0081890374 0.042118773 0.052260082
-0.0086119957 0.042118773 0.054228473
-0.0029639676 0.042118773 0.05165441
-0.0069007501 0.042272888 0.052260082
-0.0049323589 0.04231929 0.052260082
-0.0069007501 0.042423755 0.054228473
-0.0049323589 0.042575538 0.054228473
-0.0029639676 0.042229459 0.052260082
-0.0029639676 0.042609483 0.054228473
-0.0069007501 0.042632811 0.056196865
-0.0049323589 0.042847842 0.056196865
-0.0069007501 0.042916223 0.058165256
-0.0049323589 0.043125428 0.058165256
-0.0029639676 0.042920582 0.056196865
-0.0029639676 0.043173991 0.058165256
-0.030521438 0.031349748 0.06013364
-0.029393841 0.032276817 0.06013364
-0.028553046 0.03304027 0.06013364
-0.030521438 0.032023594 0.062102031
-0.030240178 0.032276817 0.062102031
-0.028553046 0.033929482 0.062102031
-0.027280819 0.034245208 0.06013364
-0.026584655 0.034245208 0.05857389
-0.028235793 0.034245208 0.062102031
-0.026584655 0.034860894 0.06013364
-0.024810642 0.036213599 0.06013364
-0.024616264 0.036213599 0.05984157
-0.024616264 0.03634125 0.06013364
-0.026584655 0.035774514 0.062102031
-0.026032593 0.036213599 0.062102031
-0.024616264 0.03722658 0.062102031
-0.031355023 0.032276817 0.064070418
-0.030521438 0.032276817 0.062638715
-0.030521438 0.033055037 0.064070418
-0.029313367 0.034245208 0.064070418
-0.028553046 0.034245208 0.06270957
-0.030521438 0.034161203 0.066038817
-0.030435055 0.034245208 0.066038817
-0.028553046 0.034981057 0.064070418
-0.028553046 0.036005944 0.066038817
-0.027176965 0.036213599 0.064070418
-0.026584655 0.036213599 0.063045338
-0.026584655 0.036691599 0.064070418
-0.024616264 0.038113736 0.064070418
-0.028310038 0.036213599 0.066038817
-0.026584655 0.037594445 0.066038817
-0.025778819 0.03818199 0.066038817
-0.024616264 0.03818199 0.064226285
-0.020679485 0.030602798 0.06013364
-0.020679485 0.030340604 0.062102031
-0.018711094 0.031791113 0.06013364
-0.01789375 0.032276817 0.06013364
-0.016742703 0.032933056 0.06013364
-0.018711094 0.031484254 0.062102031
-0.017320409 0.032276817 0.062102031
-0.016742703 0.032589696 0.062102031
-0.022647876 0.037583284 0.06013364
-0.021553993 0.03818199 0.06013364
-0.020679485 0.03818199 0.059255879
-0.023119509 0.03818199 0.062102031
-0.022647876 0.03818199 0.06145348
-0.020679485 0.030455723 0.066038817
-0.018711094 0.031416915 0.064070418
-0.017117817 0.032276817 0.064070418
-0.016742703 0.032463476 0.064070418
-0.018711094 0.03163816 0.066038817
-0.017463677 0.032276817 0.066038817
-0.016742703 0.032605812 0.066038817
-0.024509434 0.03818199 0.064070418
-0.024616264 0.038943976 0.066038817
-0.020679485 0.038599871 0.06013364
-0.022647876 0.038456008 0.062102031
