# .PCD v0.7 - Point Cloud Data file format
VERSION 0.7
FIELDS x y z
SIZE 4 4 4
TYPE F F F
COUNT 1 1 1
WIDTH 1296
HEIGHT 1
VIEWPOINT 0 0 0 1 0 0 0
POINTS 1296
DATA ascii
-0.024949154 0.0082431063 0.064580128
-0.024752157 0.0089190193 0.064580128
-0.024752157 0.010816146 0.063193701
-0.024752157 0.0082431063 0.064837016
-0.023830028 0.010816146 0.064580128
-0.022179119 0.0078896955 0.067153163
-0.022179119 0.0082431063 0.067056373
-0.022010954 0.0082431063 0.067153163
-0.022179119 0.010816146 0.066082329
-0.020489143 0.010816146 0.067153163
-0.024752157 0.012257747 0.059434049
-0.024752157 0.011534266 0.062007092
-0.024070045 0.013389181 0.059434049
-0.022179119 0.015754905 0.059434049
-0.022179119 0.015962221 0.058323145
-0.02197409 0.015962221 0.059434049
-0.023441043 0.013389181 0.062007092
-0.022179119 0.014932219 0.062007092
-0.021196779 0.015962221 0.062007092
-0.019606082 0.01798588 0.059434049
-0.019606082 0.017320313 0.062007092
-0.022179119 0.013076775 0.064580128
-0.022179119 0.013389181 0.0642858
-0.021936804 0.013389181 0.064580128
-0.019606082 0.015947819 0.064580128
-0.019606082 0.015962221 0.06456355
-0.019606082 0.011995845 0.067153163
-0.019606082 0.013389181 0.066521347
-0.022179119 0.0030970313 0.06805753
-0.019606082 0.0030970313 0.069091
-0.022179119 0.0056700706 0.067665935
-0.019606082 0.0056700706 0.068772383
-0.019606082 0.0082431063 0.068286732
-0.019606082 0.010816146 0.067580186
-0.018913554 0.018535256 0.059434049
-0.017033044 0.020297967 0.059434049
-0.016265003 0.021108292 0.059434049
-0.018102983 0.018535256 0.062007092
-0.017033044 0.01957674 0.062007092
-0.015718758 0.021108292 0.062007092
-0.019590504 0.015962221 0.064580128
-0.018413244 0.013389181 0.067153163
-0.017033044 0.014747098 0.067153163
-0.017033044 0.015962221 0.066508777
-0.015592985 0.015962221 0.067153163
-0.017033044 0.018195219 0.064580128
-0.017033044 0.018535256 0.064110383
-0.016653236 0.018535256 0.064580128
-0.014460007 0.020549241 0.064580128
-0.014460007 0.021108292 0.063985229
-0.014460007 0.016839802 0.067153163
-0.014460007 0.018535256 0.066204071
-0.013730252 0.021108292 0.064580128
-0.011886969 0.018502459 0.067153163
-0.011886969 0.018535256 0.067137733
-0.011827545 0.018535256 0.067153163
-0.011886969 0.021108292 0.065551855
-0.0093139336 0.019708134 0.067153163
-0.0093139336 0.021108292 0.066363521
-0.0067408942 0.020522557 0.067153163
-0.0067408942 0.021108292 0.066837981
-0.0041678585 0.020999182 0.067153163
-0.0041678585 0.021108292 0.067094877
-0.0030993372 0.021108292 0.067153163
-0.014460007 0.0056700706 0.070022091
-0.0093139336 0.0056700706 0.070708491
-0.017033044 0.0056700706 0.069498733
-0.017033044 0.0082431063 0.069089413
-0.016005471 0.0056700706 0.069726199
-0.014460007 0.0077210888 0.069726199
-0.014460007 0.0082431063 0.06964042
-0.017033044 0.010816146 0.068513997
-0.014460007 0.010816146 0.069136195
-0.0093139336 0.010816146 0.06995219
-0.017033044 0.013389181 0.06771417
-0.014460007 0.013389181 0.068463609
-0.014460007 0.015962221 0.067546979
-0.0093139336 0.015962221 0.068645917
-0.011886969 0.015962221 0.068195507
-0.0093139336 0.018535256 0.067697905
-0.0041678585 0.010816146 0.070406541
-0.0041678585 0.015962221 0.069196299
-0.014460007 0.022841319 0.059434049
-0.014460007 0.022391006 0.062007092
-0.013465473 0.023681328 0.059434049
-0.011886969 0.024793737 0.059434049
-0.0093139336 0.025992088 0.059434049
-0.0093139336 0.026254371 0.057779819
-0.012692098 0.023681328 0.062007092
-0.011886969 0.024114706 0.062007092
-0.0093139336 0.025040716 0.062007092
-0.011886969 0.02224575 0.064580128
-0.011886969 0.023681328 0.062772244
-0.0093139336 0.023283109 0.064580128
-0.0093139336 0.023681328 0.06411992
-0.0083821788 0.026254371 0.059434049
-0.0067408942 0.025492817 0.062007092
-0.0067408942 0.026254371 0.060217261
-0.0041678585 0.02585981 0.062007092
-0.0041678585 0.026254371 0.061065421
-0.0015948191 0.026198581 0.062007092
-0.0015948191 0.026254371 0.061881043
-0.0067408942 0.026531853 0.059434049
-0.0041678585 0.026853189 0.059434049
-0.0015948191 0.027151518 0.059434049
-0.0077230483 0.023681328 0.064580128
-0.0067408942 0.023872361 0.064580128
-0.0041678585 0.024275407 0.064580128
-0.0067408942 0.023681328 0.064799361
-0.0041678585 0.023681328 0.065213896
-0.0015948191 0.02450975 0.064580128
-0.0015948191 0.021199252 0.067153163
-0.0015948191 0.023681328 0.065384254
-0.0015948191 0.021108292 0.067203306
0.0035512522 -0.021393947 0.010546343
0.0035512522 -0.020060303 0.0096250698
0.0061242916 -0.020678289 0.010546343
0.0061242916 -0.020060303 0.010130465
0.0075479485 -0.020060303 0.010546343
0.0035512522 -0.025486922 0.015692418
0.0035512522 -0.025206378 0.015129959
0.0050606057 -0.025206378 0.015692418
0.0035512522 -0.023930704 0.013119381
0.0035512522 -0.02263334 0.011636991
0.0061242916 -0.023371849 0.013119381
0.0061242916 -0.02263334 0.012264773
0.0061242916 -0.024966743 0.015692418
0.0084313191 -0.02263334 0.013119381
0.0086973272 -0.022533223 0.013119381
0.0086973272 -0.020060303 0.010923622
0.011270367 -0.021459738 0.013119381
0.011270367 -0.020060303 0.011846751
0.0086973272 -0.024226176 0.015692418
0.0086973272 -0.02263334 0.013237003
0.011270367 -0.023234475 0.015692418
0.011270367 -0.02263334 0.01465557
0.013843402 -0.020205097 0.013119381
0.013843402 -0.020060303 0.012975166
0.014113709 -0.020060303 0.013119381
0.012608524 -0.02263334 0.015692418
0.013843402 -0.022040825 0.015692418
0.016416442 -0.020529136 0.015692418
0.016416442 -0.020060303 0.014898047
0.017081071 -0.020060303 0.015692418
0.00161824 -0.014914228 0.0079733068
0.0035512522 -0.017487265 0.0085746786
0.0061242916 -0.017487265 0.0089685321
0.0035512522 -0.014914228 0.0082160896
0.0061242916 -0.014914228 0.0085134581
0.0086973272 -0.019459125 0.010546343
0.0086973272 -0.017487265 0.0095359227
0.011270367 -0.018066648 0.010546343
0.011270367 -0.017487265 0.010231048
0.0086973272 -0.014914228 0.0087755248
0.011270367 -0.014914228 0.0092158699
0.0022437759 -0.01234119 0.0079733068
0.0031593889 -0.0097681545 0.0079733068
0.0035512522 -0.01234119 0.0081333444
0.0061242916 -0.01234119 0.0083861724
0.0035512522 -0.0097681545 0.0080152079
0.0061242916 -0.0097681545 0.0082799802
0.0086973272 -0.01234119 0.0085806586
0.011270367 -0.01234119 0.0088665811
0.0086973272 -0.0097681545 0.0085584661
0.011270367 -0.0097681545 0.0088215396
0.012350712 -0.017487265 0.010546343
0.013843402 -0.016638651 0.010546343
0.013843402 -0.014914228 0.0098055331
0.016416442 -0.015066443 0.010546343
0.016416442 -0.014914228 0.010471337
0.01666015 -0.014914228 0.010546343
0.013843402 -0.01234119 0.0092187244
0.016416442 -0.01234119 0.0095761698
0.013843402 -0.0097681545 0.0089907823
0.016416442 -0.0097681545 0.0091307014
0.018989477 -0.013197688 0.010546343
0.018989477 -0.01234119 0.010153838
0.019961607 -0.01234119 0.010546343
0.018989477 -0.0097681545 0.0094126035
0.021562513 -0.010532463 0.010546343
0.021562513 -0.0097681545 0.010240601
0.013843402 -0.017487265 0.011014191
0.016416442 -0.018635152 0.013119381
0.016416442 -0.017487265 0.012104586
0.017907575 -0.017487265 0.013119381
0.018989477 -0.016535604 0.013119381
0.018989477 -0.014914228 0.011646703
0.020661421 -0.014914228 0.013119381
0.018989477 -0.018467527 0.015692418
0.018989477 -0.017487265 0.01422446
0.019997906 -0.017487265 0.015692418
0.021562513 -0.015810698 0.015692418
0.021562513 -0.014914228 0.01432395
0.021562513 -0.01394124 0.013119381
0.021562513 -0.01234119 0.011628091
0.0035512522 -0.0092560314 0.0079733068
0.0035512522 -0.0071951151 0.0077276519
0.0055628084 -0.0071951151 0.0079733068
0.0035512522 -0.0046220794 0.0073634405
0.0061242916 -0.0066267066 0.0079733068
0.0061242916 -0.0046220794 0.0077096149
0.0061242916 -0.0071951151 0.0080435425
0.0076578483 -0.0046220794 0.0079733068
0.0086973272 -0.0071951151 0.0084022107
0.011270367 -0.0071951151 0.0087101385
0.0086973272 -0.0046220794 0.0081651872
0.011270367 -0.0046220794 0.0085247299
0.0035512522 -0.00204904 0.0070619062
0.0061242916 -0.00204904 0.0074339313
0.0086010806 -0.00204904 0.0079733068
0.0086973272 -0.0014189705 0.0079733068
0.0086973272 -0.00204904 0.0079952804
0.011270367 -0.00204904 0.0083945096
0.013843402 -0.0071951151 0.0088157048
0.016416442 -0.0071951151 0.0088706687
0.013843402 -0.0046220794 0.0086205192
0.016416442 -0.0046220794 0.008701616
0.018989477 -0.0071951151 0.009108969
0.021562513 -0.0071951151 0.0096958373
0.018989477 -0.0046220794 0.0090303607
0.021562513 -0.0046220794 0.0095913829
0.013843402 -0.00204904 0.0084792273
0.016416442 -0.00204904 0.0086030001
0.018989477 -0.00204904 0.0090027414
0.021562513 -0.00204904 0.0095607061
0.022091504 -0.0097681545 0.010546343
0.022329066 -0.014914228 0.015692418
0.022884768 -0.01234119 0.013119381
0.024135549 -0.01050977 0.013119381
0.024135549 -0.0097681545 0.01248851
0.024571557 -0.0097681545 0.013119381
0.024135549 -0.012535116 0.015692418
0.024135549 -0.01234119 0.015372816
0.024269279 -0.01234119 0.015692418
0.025857445 -0.0097681545 0.015692418
0.023336109 -0.0071951151 0.010546343
0.023974214 -0.0046220794 0.010546343
0.024135549 -0.0035786852 0.010546343
0.024135549 -0.00204904 0.010439686
0.024341371 -0.00204904 0.010546343
0.024135549 -0.0071951151 0.011157095
0.0257666 -0.0071951151 0.013119381
0.024135549 -0.0046220794 0.01064231
0.026499461 -0.0046220794 0.013119381
0.026708592 -0.0079224557 0.015692418
0.026708592 -0.0071951151 0.01499928
0.026708592 -0.0046220794 0.013485311
0.026973378 -0.0071951151 0.015692418
0.027643885 -0.0046220794 0.015692418
0.026708592 -0.0034736581 0.013119381
0.026708592 -0.00204904 0.012822747
0.026890825 -0.00204904 0.013119381
0.027985942 -0.00204904 0.015692418
0.0035512522 -0.026423713 0.018265456
0.0061242916 -0.02592456 0.018265456
0.0061242916 -0.025206378 0.016218547
0.0035512522 -0.026902586 0.020838493
0.0061242916 -0.02646124 0.020838493
0.0086973272 -0.025227064 0.018265456
0.0086973272 -0.025206378 0.018196806
0.0087643787 -0.025206378 0.018265456
0.0086973272 -0.025811043 0.020838493
0.010478035 -0.025206378 0.020838493
0.011270367 -0.024294868 0.018265456
0.011270367 -0.02489043 0.020838493
0.0035512522 -0.027072579 0.023411531
0.0061242916 -0.026701026 0.023411531
0.0035512522 -0.02711658 0.025984567
0.0061242916 -0.026810938 0.025984567
0.0086973272 -0.026088905 0.023411531
0.011133593 -0.025206378 0.023411531
0.0086973272 -0.02619347 0.025984567
0.011270367 -0.025285318 0.025984567
0.011270367 -0.025206378 0.024517933
0.011270367 -0.025149602 0.023411531
0.013843402 -0.023068054 0.018265456
0.013843402 -0.02263334 0.017007949
0.01466037 -0.02263334 0.018265456
0.016416442 -0.021568418 0.018265456
0.013843402 -0.023660349 0.020838493
0.015633989 -0.02263334 0.020838493
0.016416442 -0.022129526 0.020838493
0.018406566 -0.020060303 0.018265456
0.018989477 -0.020132866 0.020838493
0.018989477 -0.020060303 0.020413904
0.01907286 -0.020060303 0.020838493
0.01147167 -0.025206378 0.025984567
0.013843402 -0.023963144 0.023411531
0.016113758 -0.02263334 0.023411531
0.016416442 -0.022428196 0.023411531
0.013843402 -0.024148323 0.025984567
0.016407728 -0.02263334 0.025984567
0.016416442 -0.022627303 0.025984567
0.018989477 -0.020368572 0.023411531
0.01933638 -0.020060303 0.023411531
0.018989477 -0.020448815 0.025984567
0.019391593 -0.020060303 0.025984567
0.0035512522 -0.027199391 0.028557606
0.0061242916 -0.026958669 0.028557606
0.0035512522 -0.027249044 0.031130642
0.0061242916 -0.027065117 0.031130642
0.0086973272 -0.026361682 0.028557606
0.011270367 -0.025513574 0.028557606
0.0086973272 -0.026540305 0.031130642
0.011270367 -0.025695819 0.031130642
0.0035512522 -0.027057394 0.033703681
0.0061242916 -0.026923422 0.033703681
0.0086973272 -0.026488116 0.033703681
0.011270367 -0.025614984 0.033703681
0.01205688 -0.025206378 0.028557606
0.012418486 -0.025206378 0.031130642
0.013843402 -0.024363879 0.028557606
0.016416442 -0.022801777 0.028557606
0.016416442 -0.02263334 0.026069369
0.013843402 -0.024469603 0.031130642
0.016416442 -0.022837652 0.031130642
0.0166535 -0.02263334 0.028557606
0.018989477 -0.020582534 0.028557606
0.019495144 -0.020060303 0.028557606
0.016702667 -0.02263334 0.031130642
0.018989477 -0.020610418 0.031130642
0.019497264 -0.020060303 0.031130642
0.012197107 -0.025206378 0.033703681
0.013843402 -0.024346655 0.033703681
0.016416442 -0.022692144 0.033703681
0.016416442 -0.02263334 0.034535002
0.016501609 -0.02263334 0.033703681
0.018989477 -0.02046581 0.033703681
0.019347213 -0.020060303 0.033703681
0.018989477 -0.019551728 0.018265456
0.021101817 -0.017487265 0.018265456
0.021562513 -0.016978415 0.018265456
0.021562513 -0.017612314 0.020838493
0.021562513 -0.017487265 0.020171748
0.021562513 -0.017842034 0.023411531
0.021562513 -0.017801017 0.025984567
0.021562513 -0.017755326 0.028557606
0.021562513 -0.017645026 0.031130642
0.021450002 -0.017487265 0.033703681
0.021562513 -0.017487265 0.032658625
0.021562513 -0.017349487 0.033703681
0.02323335 -0.014914228 0.018265456
0.021671884 -0.017487265 0.020838493
0.023650516 -0.014914228 0.020838493
0.024135549 -0.013627525 0.018265456
0.025004562 -0.01234119 0.018265456
0.026552651 -0.0097681545 0.018265456
0.024135549 -0.01417248 0.020838493
0.025329169 -0.01234119 0.020838493
0.026708592 -0.0099945087 0.020838493
0.026708592 -0.0097681545 0.019362466
0.026820797 -0.0097681545 0.020838493
0.021871138 -0.017487265 0.023411531
0.023818012 -0.014914228 0.023411531
0.021837685 -0.017487265 0.025984567
0.023839165 -0.014914228 0.025984567
0.024135549 -0.014424996 0.023411531
0.025458764 -0.01234119 0.023411531
0.026708592 -0.010072807 0.023411531
0.024135549 -0.014476825 0.025984567
0.025493134 -0.01234119 0.025984567
0.026708592 -0.0099032614 0.025984567
0.026847843 -0.0097681545 0.023411531
0.026762318 -0.0097681545 0.025984567
0.026708592 -0.0094568282 0.018265456
0.027607005 -0.0071951151 0.018265456
0.028188739 -0.0046220794 0.018265456
0.027791854 -0.0071951151 0.020838493
0.028303135 -0.0046220794 0.020838493
0.028482866 -0.00204904 0.018265456
0.028596874 -0.00204904 0.020838493
0.027731244 -0.0071951151 0.023411531
0.028204504 -0.0046220794 0.023411531
0.027568433 -0.0071951151 0.025984567
0.028056752 -0.0046220794 0.025984567
0.028553125 -0.00204904 0.023411531
0.028488699 -0.00204904 0.025984567
0.02178967 -0.017487265 0.028557606
0.023829658 -0.014914228 0.028557606
0.021694914 -0.017487265 0.031130642
0.023791488 -0.014914228 0.031130642
0.024135549 -0.014483873 0.028557606
0.0254899 -0.01234119 0.028557606
0.02666172 -0.0097681545 0.028557606
0.026708592 -0.0097681545 0.027277846
0.024135549 -0.014440058 0.031130642
0.025419962 -0.01234119 0.031130642
0.026535127 -0.0097681545 0.031130642
0.023529146 -0.014914228 0.033703681
0.024135549 -0.014044082 0.033703681
0.025126297 -0.01234119 0.033703681
0.02627198 -0.0097681545 0.033703681
0.026708592 -0.0096339956 0.028557606
0.026708592 -0.0092475973 0.031130642
0.027432416 -0.0071951151 0.028557606
0.027996007 -0.0046220794 0.028557606
0.027316798 -0.0071951151 0.031130642
0.027933273 -0.0046220794 0.031130642
0.028480452 -0.00204904 0.028557606
0.028412651 -0.00204904 0.031130642
0.026708592 -0.0084879324 0.033703681
0.027084175 -0.0071951151 0.033703681
0.027702529 -0.0046220794 0.033703681
0.028214235 -0.00204904 0.033703681
0.0035512522 -0.026077248 0.038849752
0.0061242916 -0.025959559 0.038849752
0.0035512522 -0.025664655 0.041422792
0.0061242916 -0.025443336 0.041422792
0.0086973272 -0.025729839 0.038849752
0.011270367 -0.025249653 0.038849752
0.0086973272 -0.025355678 0.041422792
0.011043686 -0.025206378 0.041422792
0.011270367 -0.025206378 0.040325124
0.011270367 -0.025176948 0.041422792
0.0035512522 -0.025560012 0.043995827
0.0061242916 -0.025361665 0.043995827
0.0035512522 -0.02569421 0.046568867
0.0061242916 -0.025696471 0.046568867
0.0086973272 -0.025385905 0.043995827
0.011134628 -0.025206378 0.043995827
0.0086973272 -0.025861094 0.046568867
0.011270367 -0.025472142 0.046568867
0.011270367 -0.025206378 0.044478189
0.011270367 -0.025182543 0.043995827
0.011434585 -0.025206378 0.038849752
0.013843402 -0.024189007 0.038849752
0.015964016 -0.02263334 0.038849752
0.016416442 -0.022238169 0.038849752
0.013843402 -0.024232021 0.041422792
0.01570414 -0.02263334 0.041422792
0.016416442 -0.021838427 0.041422792
0.018568918 -0.020060303 0.038849752
0.018989477 -0.020060303 0.037052218
0.017963585 -0.020060303 0.041422792
0.012009267 -0.025206378 0.046568867
0.013843402 -0.024132112 0.043995827
0.015542217 -0.02263334 0.043995827
0.016416442 -0.021664722 0.043995827
0.013843402 -0.024172304 0.046568867
0.015596058 -0.02263334 0.046568867
0.016416442 -0.021828365 0.046568867
0.017873246 -0.020060303 0.043995827
0.018166877 -0.020060303 0.046568867
0.0035512522 -0.025980603 0.049141902
0.0061242916 -0.026100114 0.049141902
0.0035512522 -0.026101675 0.051714942
0.0061242916 -0.02617291 0.051714942
0.0086973272 -0.026216574 0.049141902
0.011270367 -0.025771596 0.049141902
0.0086973272 -0.026207268 0.051714942
0.011270367 -0.025751524 0.051714942
0.0035512522 -0.02610621 0.054287978
0.0061242916 -0.026017496 0.054287978
0.0035512522 -0.026143361 0.056861013
0.0061242916 -0.025801506 0.056861013
0.0086973272 -0.025950404 0.054287978
0.011270367 -0.025389906 0.054287978
0.0086973272 -0.025403298 0.056861013
0.0095947422 -0.025206378 0.056861013
0.011270367 -0.025206378 0.055022441
0.011270367 -0.024565324 0.056861013
0.012654033 -0.025206378 0.049141902
0.012599874 -0.025206378 0.051714942
0.013843402 -0.024457589 0.049141902
0.015854161 -0.02263334 0.049141902
0.016416442 -0.022064026 0.049141902
0.013843402 -0.024436152 0.051714942
0.015866306 -0.02263334 0.051714942
0.016416442 -0.022081731 0.051714942
0.018317513 -0.020060303 0.049141902
0.018364813 -0.020060303 0.051714942
0.011694469 -0.025206378 0.054287978
0.013843402 -0.023894476 0.054287978
0.015372608 -0.02263334 0.054287978
0.016416442 -0.021776976 0.054287978
0.013843402 -0.023047252 0.056861013
0.01445457 -0.02263334 0.056861013
0.016416442 -0.021397647 0.056861013
0.018422678 -0.020060303 0.054287978
0.018371869 -0.020060303 0.056861013
0.018989477 -0.019556563 0.038849752
0.020691525 -0.017487265 0.038849752
0.021562513 -0.016434241 0.038849752
0.018989477 -0.018856073 0.041422792
0.020224843 -0.017487265 0.041422792
0.021562513 -0.0160567 0.041422792
0.018989477 -0.018842323 0.043995827
0.020280395 -0.017487265 0.043995827
0.021562513 -0.016178127 0.043995827
0.018989477 -0.019181009 0.046568867
0.02058446 -0.017487265 0.046568867
0.021562513 -0.016484547 0.046568867
0.018989477 -0.019299777 0.049141902
0.020660907 -0.017487265 0.049141902
0.021562513 -0.016558239 0.049141902
0.018989477 -0.019360883 0.051714942
0.020727478 -0.017487265 0.051714942
0.021562513 -0.016589312 0.051714942
0.018989477 -0.019505495 0.054287978
0.020894036 -0.017487265 0.054287978
0.021562513 -0.016715776 0.054287978
0.018989477 -0.019546185 0.056861013
0.021060865 -0.017487265 0.056861013
0.021562513 -0.01693204 0.056861013
0.02273092 -0.014914228 0.038849752
0.022561114 -0.014914228 0.041422792
0.024135549 -0.012738764 0.038849752
0.024373401 -0.01234119 0.038849752
0.025847215 -0.0097681545 0.038849752
0.024135549 -0.012823194 0.041422792
0.02446368 -0.01234119 0.041422792
0.025928643 -0.0097681545 0.041422792
0.022779163 -0.014914228 0.043995827
0.023100961 -0.014914228 0.046568867
0.024135549 -0.013310051 0.043995827
0.024806414 -0.01234119 0.043995827
0.026039023 -0.0097681545 0.043995827
0.024135549 -0.013716996 0.046568867
0.025033463 -0.01234119 0.046568867
0.025991987 -0.0097681545 0.046568867
0.026708592 -0.0077874921 0.038849752
0.026708592 -0.0077721886 0.041422792
0.026898224 -0.0071951151 0.038849752
0.027551342 -0.0046220794 0.038849752
0.026888128 -0.0071951151 0.041422792
0.027558085 -0.0046220794 0.041422792
0.028082866 -0.00204904 0.038849752
0.028091345 -0.00204904 0.041422792
0.026708592 -0.0077336431 0.043995827
0.026667375 -0.0071951151 0.046568867
0.026708592 -0.0071951151 0.04629375
0.026708592 -0.0070518628 0.046568867
0.026874539 -0.0071951151 0.043995827
0.027606647 -0.0046220794 0.043995827
0.027426105 -0.0046220794 0.046568867
0.028150406 -0.00204904 0.043995827
0.028017629 -0.00204904 0.046568867
0.023104165 -0.014914228 0.049141902
0.02297553 -0.014914228 0.051714942
0.024135549 -0.013568766 0.049141902
0.024828572 -0.01234119 0.049141902
0.025658052 -0.0097681545 0.049141902
0.024135549 -0.013138525 0.051714942
0.024540771 -0.01234119 0.051714942
0.025459569 -0.0097681545 0.051714942
0.022936095 -0.014914228 0.054287978
0.023152243 -0.014914228 0.056861013
0.024135549 -0.013147689 0.054287978
0.024647411 -0.01234119 0.054287978
0.025785994 -0.0097681545 0.054287978
0.024135549 -0.013619754 0.056861013
0.02506553 -0.01234119 0.056861013
0.026112135 -0.0097681545 0.056861013
0.026210558 -0.0071951151 0.049141902
0.026708592 -0.0054026395 0.049141902
0.026062664 -0.0071951151 0.051714942
0.026708592 -0.0049462989 0.051714942
0.026966687 -0.0046220794 0.049141902
0.026823889 -0.0046220794 0.051714942
0.027683634 -0.00204904 0.049141902
0.027600933 -0.00204904 0.051714942
0.026420269 -0.0071951151 0.054287978
0.026708592 -0.0060785115 0.054287978
0.026639353 -0.0071951151 0.056861013
0.026708592 -0.0068964139 0.056861013
0.02718826 -0.0046220794 0.054287978
0.027415898 -0.0046220794 0.056861013
0.027948748 -0.00204904 0.054287978
0.02827004 -0.00204904 0.056861013
0.0035512522 -0.025876205 0.059434049
0.0061242916 -0.025395468 0.059434049
0.0035512522 -0.025373911 0.062007092
0.0048888065 -0.025206378 0.062007092
0.0061242916 -0.025206378 0.060460486
0.0068634413 -0.025206378 0.059434049
0.0086973272 -0.025206378 0.05754615
0.0061242916 -0.024954414 0.062007092
0.0086973272 -0.024675269 0.059434049
0.011270367 -0.023695368 0.059434049
0.0086973272 -0.024151664 0.062007092
0.011270367 -0.023194652 0.062007092
0.0035512522 -0.025206378 0.062915057
0.0035512522 -0.024866715 0.064580128
0.0061242916 -0.02444705 0.064580128
0.0035512522 -0.023577815 0.067153163
0.0061242916 -0.023007652 0.067153163
0.0086973272 -0.023626618 0.064580128
0.011270367 -0.022646597 0.064580128
0.0072821043 -0.02263334 0.067153163
0.0086973272 -0.02263334 0.066565678
0.011270367 -0.02263334 0.064620018
0.0086973272 -0.022103855 0.067153163
0.011270367 -0.02095433 0.067153163
0.013569355 -0.02263334 0.059434049
0.013843402 -0.02263334 0.058539003
0.013843402 -0.022495009 0.059434049
0.016416442 -0.021166632 0.059434049
0.012757353 -0.02263334 0.062007092
0.013843402 -0.022180907 0.062007092
0.016416442 -0.020927463 0.062007092
0.018253341 -0.020060303 0.059434049
0.017862163 -0.020060303 0.062007092
0.011305265 -0.02263334 0.064580128
0.013843402 -0.021519193 0.064580128
0.016416442 -0.020084837 0.064580128
0.0129053 -0.020060303 0.067153163
0.013843402 -0.020060303 0.066663511
0.016416442 -0.020060303 0.064621978
0.016455904 -0.020060303 0.064580128
0.0035512522 -0.02263334 0.068005741
0.0061242916 -0.02263334 0.067506276
0.0035512522 -0.020060303 0.06935329
0.0061242916 -0.020060303 0.069060422
0.0086973272 -0.020060303 0.068576433
0.011270367 -0.020060303 0.067826077
0.018989477 -0.019502943 0.059434049
0.021151721 -0.017487265 0.059434049
0.021562513 -0.017069904 0.059434049
0.018989477 -0.019174168 0.062007092
0.020702243 -0.017487265 0.062007092
0.021562513 -0.016528079 0.062007092
0.013843402 -0.019481346 0.067153163
0.016416442 -0.0175297 0.067153163
0.018989477 -0.017954025 0.064580128
0.019425534 -0.017487265 0.064580128
0.021523453 -0.014914228 0.064580128
0.021562513 -0.014914228 0.064520411
0.016464286 -0.017487265 0.067153163
0.018989477 -0.017487265 0.065129012
0.018929888 -0.014914228 0.067153163
0.018989477 -0.014914228 0.067115113
0.021562513 -0.014858602 0.064580128
0.018989477 -0.014842177 0.067153163
0.020747188 -0.01234119 0.067153163
0.021562513 -0.01234119 0.066487148
0.021562513 -0.010778934 0.067153163
0.0061242916 -0.014914228 0.070474423
0.0076226294 -0.017487265 0.069726199
0.0061242916 -0.018155696 0.069726199
0.0086973272 -0.017487265 0.069565944
0.011270367 -0.017487265 0.069059089
0.0086973272 -0.016893633 0.069726199
0.011270367 -0.015203387 0.069726199
0.0061242916 -0.017487265 0.06991075
0.0086973272 -0.014914228 0.070183381
0.011270367 -0.014914228 0.069794945
0.0061242916 -0.0097681545 0.071158111
0.011270367 -0.0097681545 0.070691593
0.013843402 -0.017487265 0.068315573
0.016416442 -0.017487265 0.067179203
0.011650838 -0.014914228 0.069726199
0.013843402 -0.014914228 0.069235206
0.016416442 -0.014914228 0.0684117
0.016416442 -0.0097681545 0.069699183
0.016416442 -0.01234119 0.069180623
0.018989477 -0.01234119 0.068193354
0.018989477 -0.0097681545 0.068848655
0.021562513 -0.0097681545 0.067465186
0.011270367 -0.0046220794 0.071117699
0.016416442 -0.0046220794 0.070316978
0.021562513 -0.0046220794 0.068497621
0.023356702 -0.014914228 0.059434049
0.022797633 -0.014914228 0.062007092
0.024135549 -0.013851102 0.059434049
0.025100645 -0.01234119 0.059434049
0.025960322 -0.0097681545 0.059434049
0.024135549 -0.012767291 0.062007092
0.02435964 -0.01234119 0.062007092
0.025297832 -0.0097681545 0.062007092
0.023127798 -0.01234119 0.064580128
0.024135549 -0.01234119 0.062538765
0.024135549 -0.0099110585 0.064580128
0.024179321 -0.0097681545 0.064580128
0.02199306 -0.0097681545 0.067153163
0.024135549 -0.0097681545 0.064657755
0.026367586 -0.0071951151 0.059434049
0.026708592 -0.0057458803 0.059434049
0.025810245 -0.0071951151 0.062007092
0.026521046 -0.0046220794 0.062007092
0.026708592 -0.0046220794 0.061206877
0.027097438 -0.0046220794 0.059434049
0.026708592 -0.004126396 0.062007092
0.028116997 -0.00204904 0.059434049
0.027465563 -0.00204904 0.062007092
0.024892095 -0.0071951151 0.064580128
0.025631901 -0.0046220794 0.064580128
0.022861857 -0.0071951151 0.067153163
0.024135549 -0.0071951151 0.06581182
0.023594093 -0.0046220794 0.067153163
0.024135549 -0.0046220794 0.066662259
0.026375573 -0.00204904 0.064580128
0.026708592 -0.00204904 0.063925348
0.026708592 -0.0003211908 0.064580128
0.024135549 -0.0025901757 0.067153163
0.024265852 -0.00204904 0.067153163
0.021562513 -0.0071951151 0.068055078
0.021562513 -0.00204904 0.068833932
0.024135549 -0.00204904 0.067259364
0.0035512522 0.0030970313 0.0067066308
0.0061242916 0.0030970313 0.0071951021
0.0035512522 0.0056700706 0.0068609295
0.0061242916 0.0056700706 0.0072904117
0.0086973272 0.0030970313 0.0078911418
0.0089972429 0.0030970313 0.0079733068
0.0086973272 0.0056700706 0.0078557087
0.0092029311 0.0056700706 0.0079733068
0.011270367 0.0030970313 0.0084488653
0.011270367 0.0056700706 0.0083896592
0.0035512522 0.0082431063 0.0072093904
0.0061242916 0.0082431063 0.0075520659
0.0035512522 0.010816146 0.0075837653
0.0061242916 0.010816146 0.0078522386
0.0086973272 0.0082431063 0.0079598054
0.0087834373 0.0082431063 0.0079733068
0.0071982145 0.010816146 0.0079733068
0.0086973272 0.0084280744 0.0079733068
0.011270367 0.0082431063 0.0082664397
0.0086973272 0.010816146 0.0081133582
0.011270367 0.010816146 0.0082076117
0.013843402 0.0030970313 0.0085867001
0.016416442 0.0030970313 0.008559145
0.013843402 0.0056700706 0.00855726
0.016416442 0.0056700706 0.0084923599
0.018989477 0.0030970313 0.0087891491
0.021562513 0.0030970313 0.0093312087
0.018989477 0.0056700706 0.0086949952
0.021562513 0.0056700706 0.00927056
0.013843402 0.0082431063 0.0083027836
0.016416442 0.0082431063 0.0083104232
0.013843402 0.010816146 0.0081463167
0.016416442 0.010816146 0.0082055135
0.018989477 0.0082431063 0.0086384397
0.021562513 0.0082431063 0.0092963502
0.018989477 0.010816146 0.0086077405
0.021562513 0.010816146 0.0094169211
0.0035512522 0.013389181 0.0079697268
0.0035902485 0.013389181 0.0079733068
0.0061242916 0.011856396 0.0079733068
0.0035512522 0.0134141 0.0079733068
0.0061242916 0.013389181 0.0081400704
0.0035512522 0.015962221 0.0082336236
0.0061242916 0.015962221 0.0083516184
0.0086973272 0.013389181 0.0082079014
0.011270367 0.013389181 0.0082220286
0.0086973272 0.015962221 0.0083489707
0.011270367 0.015962221 0.0083711073
0.0035512522 0.018535256 0.0084721204
0.0061242916 0.018535256 0.0085643483
0.0035512522 0.021108292 0.0089586508
0.0061242916 0.021108292 0.0090195518
0.0086973272 0.018535256 0.0086183641
0.011270367 0.018535256 0.0086869719
0.0086973272 0.021108292 0.0091325752
0.011270367 0.021108292 0.0093369558
0.013843402 0.013389181 0.0082064131
0.016416442 0.013389181 0.0083177313
0.013843402 0.015962221 0.008435226
0.016416442 0.015962221 0.008651712
0.018989477 0.013389181 0.0087868245
0.021562513 0.013389181 0.0098676458
0.018989477 0.015962221 0.0093613062
0.020993464 0.015962221 0.010546343
0.021562513 0.015116207 0.010546343
0.013843402 0.018535256 0.0088585168
0.016416442 0.018535256 0.0093527827
0.013843402 0.021108292 0.009808911
0.015733816 0.021108292 0.010546343
0.016416442 0.0206315 0.010546343
0.01882888 0.018535256 0.010546343
0.018989477 0.018368866 0.010546343
0.021562513 0.015962221 0.011051627
0.016416442 0.021108292 0.010958217
0.018989477 0.018535256 0.010665641
0.021133013 0.018535256 0.013119381
0.021562513 0.01802681 0.013119381
0.018549841 0.021108292 0.013119381
0.018989477 0.020717874 0.013119381
0.021562513 0.018535256 0.01391557
0.018989477 0.021108292 0.013816349
0.019902635 0.021108292 0.015692418
0.021562513 0.019394547 0.015692418
0.024135549 0.0030970313 0.010263029
0.024648648 0.0030970313 0.010546343
0.024135549 0.0056700706 0.010306273
0.024544086 0.0056700706 0.010546343
0.024135549 0.0082431063 0.010486003
0.024226625 0.0082431063 0.010546343
0.023586441 0.010816146 0.010546343
0.024135549 0.008728385 0.010546343
0.026708592 0.0030970313 0.012490246
0.026708592 0.0056700706 0.012645381
0.027126137 0.0030970313 0.013119381
0.027022902 0.0056700706 0.013119381
0.028237101 0.0030970313 0.015692418
0.028184537 0.0056700706 0.015692418
0.026651997 0.0082431063 0.013119381
0.026708592 0.0079621635 0.013119381
0.024135549 0.010816146 0.010998901
0.025869559 0.010816146 0.013119381
0.026708592 0.0082431063 0.013210624
0.026708592 0.010816146 0.014849443
0.027828176 0.0082431063 0.015692418
0.02699298 0.010816146 0.015692418
0.02254219 0.013389181 0.010546343
0.024135549 0.013389181 0.012291804
0.024655309 0.013389181 0.013119381
0.023110349 0.015962221 0.013119381
0.024135549 0.014316738 0.013119381
0.025722403 0.013389181 0.015692418
0.026708592 0.011465516 0.015692418
0.024135549 0.015962221 0.015637312
0.024151135 0.015962221 0.015692418
0.022283051 0.018535256 0.015692418
0.024135549 0.015986435 0.015692418
0.0035512522 0.023681328 0.009811799
0.0061242916 0.023681328 0.0099449037
0.0035512522 0.025074653 0.010546343
0.0061242916 0.024745248 0.010546343
0.0086973272 0.023681328 0.010219047
0.010373719 0.023681328 0.010546343
0.011270367 0.023356587 0.010546343
0.0086973272 0.024193019 0.010546343
0.0035512522 0.026254371 0.011517325
0.0061242916 0.026254371 0.011874534
0.011270367 0.023681328 0.010799326
0.0086973272 0.026254371 0.012614954
0.0097796172 0.026254371 0.013119381
0.011270367 0.025685936 0.013119381
0.011270367 0.026254371 0.014136823
0.0035512522 0.027483426 0.013119381
0.0061242916 0.02716843 0.013119381
0.0035512522 0.02862978 0.015692418
0.0061242916 0.028327934 0.015692418
0.0086973272 0.026589915 0.013119381
0.0086973272 0.027797148 0.015692418
0.011270367 0.026926242 0.015692418
0.013843402 0.022217914 0.010546343
0.013843402 0.023681328 0.012050144
0.015074972 0.023681328 0.013119381
0.016416442 0.022787474 0.013119381
0.013843402 0.024414241 0.013119381
0.016416442 0.023681328 0.014968378
0.012732062 0.026254371 0.015692418
0.013843402 0.025659025 0.015692418
0.016416442 0.023956433 0.015692418
0.016793773 0.023681328 0.015692418
0.018989477 0.021931246 0.015692418
0.020694435 0.021108292 0.018265456
0.021562513 0.020173684 0.018265456
0.020996198 0.021108292 0.020838493
0.021562513 0.02047189 0.020838493
0.02098633 0.021108292 0.023411531
0.021562513 0.020452838 0.023411531
0.020881463 0.021108292 0.025984567
0.021562513 0.02033798 0.025984567
0.020712059 0.021108292 0.028557606
0.021562513 0.020160533 0.028557606
0.020397097 0.021108292 0.031130642
0.021562513 0.019858371 0.031130642
0.019872859 0.021108292 0.033703681
0.021562513 0.019443996 0.033703681
0.028744545 0.0030970313 0.018265456
0.028748807 0.0056700706 0.018265456
0.028933007 0.0030970313 0.020838493
0.028958935 0.0056700706 0.020838493
0.028406713 0.0082431063 0.018265456
0.027521174 0.010816146 0.018265456
0.028602425 0.0082431063 0.020838493
0.027720142 0.010816146 0.020838493
0.029031422 0.0030970313 0.023411531
0.028956834 0.0056700706 0.023411531
0.029045898 0.0030970313 0.025984567
0.028823104 0.0056700706 0.025984567
0.028516013 0.0082431063 0.023411531
0.027667385 0.010816146 0.023411531
0.028287034 0.0082431063 0.025984567
0.027450334 0.010816146 0.025984567
0.026204843 0.013389181 0.018265456
0.026708592 0.012473714 0.018265456
0.024628464 0.015962221 0.018265456
0.026383471 0.013389181 0.020838493
0.026708592 0.012821786 0.020838493
0.024767663 0.015962221 0.020838493
0.022884149 0.018535256 0.018265456
0.024135549 0.01673533 0.018265456
0.02307548 0.018535256 0.020838493
0.024135549 0.01695656 0.020838493
0.026397843 0.013389181 0.023411531
0.026708592 0.012826994 0.023411531
0.024800573 0.015962221 0.023411531
0.026276138 0.013389181 0.025984567
0.026708592 0.012521945 0.025984567
0.024783049 0.015962221 0.025984567
0.02307466 0.018535256 0.023411531
0.024135549 0.016993955 0.023411531
0.023030426 0.018535256 0.025984567
0.024135549 0.016983744 0.025984567
0.028924633 0.0030970313 0.028557606
0.028641332 0.0056700706 0.028557606
0.02874722 0.0030970313 0.031130642
0.028473083 0.0056700706 0.031130642
0.02807257 0.0082431063 0.028557606
0.027231056 0.010816146 0.028557606
0.027921516 0.0082431063 0.031130642
0.027084824 0.010816146 0.031130642
0.028536927 0.0030970313 0.033703681
0.028267864 0.0056700706 0.033703681
0.026708592 0.010816146 0.035619657
0.027740758 0.0082431063 0.033703681
0.026915114 0.010816146 0.033703681
0.02609339 0.013389181 0.028557606
0.026708592 0.012077238 0.028557606
0.024670411 0.015962221 0.028557606
0.025971707 0.013389181 0.031130642
0.026708592 0.011751343 0.031130642
0.024567235 0.015962221 0.031130642
0.02291831 0.018535256 0.028557606
0.024135549 0.016837887 0.028557606
0.022714067 0.018535256 0.031130642
0.024135549 0.016652681 0.031130642
0.02584837 0.013389181 0.033703681
0.026708592 0.011356454 0.033703681
0.024448533 0.015962221 0.033703681
0.022425923 0.018535256 0.033703681
0.024135549 0.016442548 0.033703681
0.0035512522 0.028827406 0.016353387
0.0061242916 0.028827406 0.017577758
0.0035512522 0.029256918 0.018265456
0.0061242916 0.028965317 0.018265456
0.0035512522 0.029507376 0.020838493
0.0061242916 0.029289111 0.020838493
0.0070027076 0.028827406 0.018265456
0.0086973272 0.028488949 0.018265456
0.011270367 0.027704328 0.018265456
0.0086973272 0.028827406 0.020349918
0.0089699253 0.028827406 0.020838493
0.011270367 0.028153986 0.020838493
0.0086973272 0.028885737 0.020838493
0.0035512522 0.029417612 0.023411531
0.0061242916 0.029269695 0.023411531
0.0035512522 0.029194303 0.025984567
0.0061242916 0.02899725 0.025984567
0.0094123818 0.028827406 0.023411531
0.011270367 0.028228119 0.023411531
0.0086973272 0.028977245 0.023411531
0.0081223212 0.028827406 0.025984567
0.0086973272 0.028745137 0.025984567
0.0086973272 0.028827406 0.025331803
0.011270367 0.028006822 0.025984567
0.013843402 0.026254371 0.017534619
0.014175128 0.026254371 0.018265456
0.016416442 0.024718903 0.018265456
0.014894836 0.026254371 0.020838493
0.016416442 0.025146984 0.020838493
0.017771464 0.023681328 0.018265456
0.018989477 0.022692338 0.018265456
0.018255558 0.023681328 0.020838493
0.018989477 0.023061961 0.020838493
0.013843402 0.026449181 0.018265456
0.013843402 0.026914194 0.020838493
0.014971476 0.026254371 0.023411531
0.016416442 0.025233865 0.023411531
0.014698721 0.026254371 0.025984567
0.016416442 0.025148965 0.025984567
0.018344898 0.023681328 0.023411531
0.018989477 0.023114733 0.023411531
0.018283386 0.023681328 0.025984567
0.018989477 0.023042403 0.025984567
0.013843402 0.026944019 0.023411531
0.013843402 0.02673737 0.025984567
0.0049071126 0.028827406 0.028557606
0.0061242916 0.028733477 0.028557606
0.0061242916 0.028827406 0.027477276
0.0035512522 0.028978869 0.028557606
0.0025315471 0.028827406 0.031130642
0.0035512522 0.028758831 0.031130642
0.0035512522 0.028827406 0.030385289
0.0061242916 0.028516509 0.031130642
0.0086973272 0.028461896 0.028557606
0.011270367 0.027740113 0.028557606
0.0086973272 0.028138712 0.031130642
0.011270367 0.027337015 0.031130642
0.0035512522 0.028435506 0.033703681
0.0061242916 0.028176911 0.033703681
0.0086973272 0.027656242 0.033703681
0.011270367 0.02679351 0.033703681
0.014201913 0.026254371 0.028557606
0.016416442 0.024902485 0.028557606
0.013380393 0.026254371 0.031130642
0.013843402 0.025987655 0.031130642
0.013843402 0.026254371 0.029813729
0.016416442 0.024408214 0.031130642
0.018058833 0.023681328 0.028557606
0.018989477 0.022855058 0.028557606
0.017483905 0.023681328 0.031130642
0.018989477 0.022459678 0.031130642
0.013843402 0.026455231 0.028557606
0.012381218 0.026254371 0.033703681
0.013843402 0.025434487 0.033703681
0.016416442 0.023813188 0.033703681
0.016416442 0.023681328 0.034277182
0.016618155 0.023681328 0.033703681
0.018989477 0.021891639 0.033703681
0.018921748 0.021108292 0.038849752
0.018989477 0.021053832 0.038849752
0.018989477 0.021108292 0.038407572
0.021562513 0.018823024 0.038849752
0.021507606 0.018535256 0.041422792
0.021562513 0.018484898 0.041422792
0.021562513 0.018535256 0.04099812
0.018613987 0.021108292 0.041422792
0.018989477 0.020784855 0.041422792
0.021302819 0.018535256 0.043995827
0.021562513 0.018283553 0.043995827
0.018495258 0.021108292 0.043995827
0.018989477 0.020671733 0.043995827
0.021198958 0.018535256 0.046568867
0.021562513 0.018159546 0.046568867
0.018406957 0.021108292 0.046568867
0.018989477 0.020606797 0.046568867
0.021090843 0.018535256 0.049141902
0.021562513 0.018032491 0.049141902
0.018253993 0.021108292 0.049141902
0.018989477 0.020496797 0.049141902
0.020987473 0.018535256 0.051714942
0.021562513 0.017903104 0.051714942
0.018239561 0.021108292 0.051714942
0.018989477 0.020462558 0.051714942
0.020878341 0.018535256 0.054287978
0.021562513 0.017752398 0.054287978
0.018445216 0.021108292 0.054287978
0.018989477 0.02055141 0.054287978
0.021033775 0.018535256 0.056861013
0.021562513 0.017910995 0.056861013
0.018820807 0.021108292 0.056861013
0.018989477 0.020908311 0.056861013
0.028083492 0.0030970313 0.038849752
0.027638886 0.0056700706 0.038849752
0.02800912 0.0030970313 0.041422792
0.027382296 0.0056700706 0.041422792
0.026292209 0.010816146 0.038849752
0.026708592 0.0093703121 0.038849752
0.026680607 0.0082431063 0.041422792
0.026708592 0.008144293 0.041422792
0.026708592 0.0082431063 0.041168798
0.025967631 0.010816146 0.041422792
0.027029727 0.0082431063 0.038849752
0.028035495 0.0030970313 0.043995827
0.027354512 0.0056700706 0.043995827
0.028045375 0.0030970313 0.046568867
0.027460676 0.0056700706 0.046568867
0.026552569 0.0082431063 0.043995827
0.026708592 0.0077668019 0.043995827
0.02568299 0.010816146 0.043995827
0.026612084 0.0082431063 0.046568867
0.026708592 0.0079976209 0.046568867
0.025530163 0.010816146 0.046568867
0.025472019 0.013389181 0.038849752
0.024115514 0.015962221 0.038849752
0.024135549 0.015933324 0.038849752
0.024135549 0.015962221 0.03852202
0.025187757 0.013389181 0.041422792
0.023842875 0.015962221 0.041422792
0.024135549 0.015530474 0.041422792
0.021867793 0.018535256 0.038849752
0.024775904 0.013389181 0.043995827
0.023492809 0.015962221 0.043995827
0.024135549 0.014849942 0.043995827
0.0245171 0.013389181 0.046568867
0.023269054 0.015962221 0.046568867
0.024135549 0.014321964 0.046568867
0.027897727 0.0030970313 0.049141902
0.027496736 0.0056700706 0.049141902
0.027910631 0.0030970313 0.051714942
0.027690109 0.0056700706 0.051714942
0.026708592 0.0082431063 0.048539102
0.025603306 0.010816146 0.049141902
0.026708592 0.0083358102 0.049141902
0.025894653 0.010816146 0.051714942
0.026708592 0.0091431774 0.051714942
0.026747014 0.0082431063 0.049141902
0.027080026 0.0082431063 0.051714942
0.028310906 0.0030970313 0.054287978
0.028099325 0.0056700706 0.054287978
0.028727006 0.0030970313 0.056861013
0.028412204 0.0056700706 0.056861013
0.026243929 0.010816146 0.054287978
0.026708592 0.01000727 0.054287978
0.026578236 0.010816146 0.056861013
0.026708592 0.01059958 0.056861013
0.02750532 0.0082431063 0.054287978
0.027807038 0.0082431063 0.056861013
0.024524678 0.013389181 0.049141902
0.023168143 0.015962221 0.049141902
0.024135549 0.014254365 0.049141902
0.024656359 0.013389181 0.051714942
0.023124229 0.015962221 0.051714942
0.024135549 0.014375504 0.051714942
0.024762277 0.013389181 0.054287978
0.023027454 0.015962221 0.054287978
0.024135549 0.014398541 0.054287978
0.024976928 0.013389181 0.056861013
0.02310637 0.015962221 0.056861013
0.024135549 0.014595799 0.056861013
0.010798305 0.026254371 0.038849752
0.011270367 0.025993064 0.038849752
0.011270367 0.026254371 0.036826801
0.010223005 0.026254371 0.041422792
0.011270367 0.025720716 0.041422792
0.0035512522 0.028082266 0.038849752
0.0061242916 0.027800426 0.038849752
0.0035512522 0.028239951 0.041422792
0.0061242916 0.027718797 0.041422792
0.0086973272 0.027157769 0.038849752
0.0086973272 0.02691438 0.041422792
0.009619005 0.026254371 0.043995827
0.011270367 0.025518499 0.043995827
0.0096855201 0.026254371 0.046568867
0.011270367 0.02554249 0.046568867
0.0035512522 0.028277092 0.043995827
0.0061242916 0.027573481 0.043995827
0.0035512522 0.028112322 0.046568867
0.0061242916 0.027533382 0.046568867
0.0086973272 0.026648521 0.043995827
0.0086973272 0.026676238 0.046568867
0.01518812 0.023681328 0.038849752
0.016416442 0.022911005 0.038849752
0.013843402 0.024490111 0.038849752
0.01503811 0.023681328 0.041422792
0.016416442 0.022799931 0.041422792
0.013843402 0.024357826 0.041422792
0.015001737 0.023681328 0.043995827
0.016416442 0.022765577 0.043995827
0.013843402 0.024315901 0.043995827
0.014857903 0.023681328 0.046568867
0.016416442 0.022657759 0.046568867
0.013843402 0.02427683 0.046568867
0.0099325404 0.026254371 0.049141902
0.011270367 0.025704563 0.049141902
0.0096773766 0.026254371 0.051714942
0.011270367 0.025738068 0.051714942
0.0035512522 0.027847365 0.049141902
0.0061242916 0.027411349 0.049141902
0.0035512522 0.027588926 0.051714942
0.0061242916 0.02716507 0.051714942
0.0086973272 0.026704073 0.049141902
0.0086973272 0.02653385 0.051714942
0.0091390982 0.026254371 0.054287978
0.011270367 0.025624074 0.054287978
0.0088771507 0.026254371 0.056861013
0.011270367 0.02562473 0.056861013
0.0035512522 0.027502462 0.054287978
0.0061242916 0.027054794 0.054287978
0.0035512522 0.027222872 0.056861013
0.0061242916 0.026829168 0.056861013
0.0086973272 0.026380457 0.054287978
0.0086973272 0.026298031 0.056861013
0.014914729 0.023681328 0.049141902
0.016416442 0.022559315 0.049141902
0.013843402 0.024406344 0.049141902
0.015241202 0.023681328 0.051714942
0.016416442 0.02269306 0.051714942
0.013843402 0.02462551 0.051714942
0.015612267 0.023681328 0.054287978
0.016416442 0.023039751 0.054287978
0.013843402 0.024701357 0.054287978
0.016054533 0.023681328 0.056861013
0.016416442 0.023423828 0.056861013
0.013843402 0.024803288 0.056861013
0.021456383 0.018535256 0.059434049
0.021562513 0.018410522 0.059434049
0.018989477 0.021108292 0.05777996
0.019307315 0.021108292 0.059434049
0.021492358 0.018535256 0.062007092
0.021562513 0.018452484 0.062007092
0.019367721 0.021108292 0.062007092
0.020126797 0.015962221 0.067153163
0.021562513 0.014307074 0.067153163
0.021562513 0.015962221 0.066004649
0.011719331 0.021108292 0.067153163
0.013843402 0.020682279 0.067153163
0.013843402 0.021108292 0.066869684
0.016416442 0.01953128 0.067153163
0.016416442 0.021108292 0.065996915
0.020557325 0.018535256 0.064580128
0.021562513 0.017322928 0.064580128
0.018202953 0.021108292 0.064580128
0.018989477 0.020345151 0.064580128
0.018989477 0.021108292 0.063305743
0.017693046 0.018535256 0.067153163
0.018989477 0.017217427 0.067153163
0.018989477 0.018535256 0.066328794
0.011270367 0.010816146 0.070578538
0.011270367 0.0056700706 0.071120977
0.016416442 0.0056700706 0.070527762
0.021562513 0.0056700706 0.069169842
0.016416442 0.010816146 0.06996268
0.021562513 0.010816146 0.068495937
0.0061242916 0.010816146 0.070742339
0.0061242916 0.015962221 0.069547802
0.011270367 0.015962221 0.06944225
0.0061242916 0.021108292 0.067273371
0.0061242916 0.018535256 0.068601742
0.0086973272 0.015962221 0.069527276
0.0086973272 0.018535256 0.068610296
0.011270367 0.018535256 0.068535939
0.0086973272 0.021108292 0.067285322
0.011270367 0.021108292 0.067187458
0.016416442 0.015962221 0.068712741
0.017620984 0.010816146 0.069726199
0.016416442 0.012078822 0.069726199
0.016416442 0.013389181 0.069437996
0.018989477 0.010816146 0.069389008
0.018989477 0.013389181 0.068758763
0.021562513 0.013389181 0.067611076
0.018989477 0.015962221 0.067785762
0.013843402 0.015962221 0.069203645
0.013843402 0.018535256 0.068283945
0.016416442 0.018535256 0.067681499
0.028697181 0.0030970313 0.059434049
0.028391395 0.0056700706 0.059434049
0.028091092 0.0030970313 0.062007092
0.027871262 0.0056700706 0.062007092
0.026708592 0.010816146 0.057909451
0.026696797 0.010816146 0.062007092
0.026708592 0.010785908 0.062007092
0.026708592 0.010816146 0.061941035
0.027865265 0.0082431063 0.059434049
0.026841339 0.010816146 0.059434049
0.027446631 0.0082431063 0.062007092
0.025027465 0.0030970313 0.067153163
0.026708592 0.0030970313 0.065102004
0.025044236 0.0056700706 0.067153163
0.026708592 0.0056700706 0.06499242
0.0270021 0.0030970313 0.064580128
0.026912618 0.0056700706 0.064580128
0.026572894 0.0082431063 0.064580128
0.026708592 0.0073457584 0.064580128
0.026708592 0.0082431063 0.06425792
0.025921296 0.010816146 0.064580128
0.024707947 0.0082431063 0.067153163
0.023865867 0.010816146 0.067153163
0.024135549 0.010170396 0.067153163
0.024135549 0.010816146 0.066933572
0.025397535 0.013389181 0.059434049
0.026708592 0.011069838 0.059434049
0.023565847 0.015962221 0.059434049
0.024135549 0.015231401 0.059434049
0.025477845 0.013389181 0.062007092
0.02370334 0.015962221 0.062007092
0.024135549 0.015423924 0.062007092
0.024674732 0.013389181 0.064580128
0.022749264 0.015962221 0.064580128
0.024135549 0.014220107 0.064580128
0.02229479 0.013389181 0.067153163
0.024135549 0.013389181 0.065406263
0.021562513 0.0030970313 0.069181368
0.024135549 0.0030970313 0.067847177
0.024135549 0.0056700706 0.067858592
0.021562513 0.0082431063 0.0689677
0.024135549 0.0082431063 0.067606606
0.0035512522 0.025988758 0.062007092
0.0035512522 0.026254371 0.061122335
0.0061242916 0.025896743 0.062007092
0.0061242916 0.026254371 0.06064897
0.0086736493 0.026254371 0.059434049
0.0086973272 0.026251987 0.059434049
0.0086973272 0.026254371 0.059291519
0.011270367 0.02580715 0.059434049
0.0086973272 0.025782503 0.062007092
0.011270367 0.025435001 0.062007092
0.0035512522 0.026658073 0.059434049
0.0061242916 0.026451394 0.059434049
0.0035512522 0.024427883 0.064580128
0.0061242916 0.024377897 0.064580128
0.0035512522 0.02125337 0.067153163
0.0035512522 0.023681328 0.065314688
0.0061242916 0.021303486 0.067153163
0.0061242916 0.023681328 0.065290928
0.0086973272 0.024283208 0.064580128
0.011270367 0.023997188 0.064580128
0.0086973272 0.02131949 0.067153163
0.0086973272 0.023681328 0.065230936
0.011270367 0.021161925 0.067153163
0.011270367 0.023681328 0.064956293
0.016416442 0.023681328 0.058676921
0.013843402 0.025022924 0.059434049
0.016416442 0.023779973 0.059434049
0.016289916 0.023681328 0.062007092
0.016416442 0.023607157 0.062007092
0.016416442 0.023681328 0.061687343
0.013843402 0.024738267 0.062007092
0.016563896 0.023681328 0.059434049
0.018989477 0.021483283 0.059434049
0.018989477 0.021526478 0.062007092
0.012901776 0.023681328 0.064580128
