# .PCD v0.7 - Point Cloud Data file format
VERSION 0.7
FIELDS x y z rgb
SIZE 4 4 4 4
TYPE F F F F
COUNT 1 1 1 1
WIDTH 947
HEIGHT 1
VIEWPOINT 0 0 0 1 0 0 0
POINTS 947
DATA ascii
0.063981496 -0.016345657 0.068370253 6.4303092e-39
0.067688346 -0.017314196 0.067572206 6.6157823e-39
0.071523935 -0.018054752 0.066986792 7.9104868e-39
0.075385034 -0.018932208 0.065929048 5.7997543e-39
-0.021383675 -0.011859894 0.067433886 6.8901986e-39
-0.018898331 -0.013635628 0.067420371 7.6274091e-39
0.059104558 -0.01098733 0.068516672 6.4303106e-39
0.062713072 -0.012259223 0.067592911 6.7998148e-39
0.066815786 -0.013158609 0.067138173 7.5406239e-39
0.070510328 -0.013981981 0.066034682 1.4567327e-38
-0.065389775 -0.0057244571 0.06766057 1.1796656e-38
-0.062100794 -0.0059446814 0.067612655 1.1704106e-38
-0.058811579 -0.0065110498 0.068843029 1.2350207e-38
-0.052023843 -0.0058865328 0.068971001 1.1980341e-38
-0.047721647 -0.005679674 0.068718985 1.2163282e-38
-0.026061686 -0.0064053573 0.06735155 7.2618565e-39
-0.023345537 -0.0083615035 0.067477696 7.3504564e-39
0.054466926 -0.005533685 0.068411849 6.7076206e-39
0.058038127 -0.0071433159 0.067614503 6.7994547e-39
0.062044952 -0.0080681136 0.067188993 7.6320992e-39
0.065470889 -0.0094190575 0.066227801 1.0500619e-38
-0.071448706 -0.00079199526 0.068306528 1.1335323e-38
-0.067364775 -0.0027390926 0.067993812 1.0781421e-38
-0.063127168 -0.0034473476 0.068392113 9.5810966e-39
-0.057451669 -0.0022153857 0.069566861 7.641757e-39
-0.051848028 -0.0027450204 0.069297411 8.6562578e-39
-0.047275044 -0.0027940483 0.068768613 1.059416e-38
-0.042688433 -0.0018155645 0.068580531 1.1147322e-38
-0.038117044 -0.00088281697 0.068489224 1.0594153e-38
-0.031207126 -0.0010117991 0.067527257 8.2813895e-39
-0.028053684 -0.0028965997 0.067354254 7.6306377e-39
-0.024495725 -0.0046824552 0.069474876 1.1046951e-38
0.049573354 -0.00035367487 0.06914705 8.1816717e-39
0.053207327 -0.0018567941 0.067659602 6.9838487e-39
0.057046719 -0.0029749074 0.067303054 7.631016e-39
0.060754791 -0.0044008507 0.06662374 1.2068309e-38
-0.075426191 0.0040082205 0.068926975 1.188922e-38
-0.072870754 0.0023753946 0.068278931 1.1612629e-38
-0.069594771 0.00056437601 0.068585292 1.0135314e-38
-0.052328587 0.00063681672 0.069818318 6.6250883e-39
-0.047248907 0.00025330638 0.069620878 6.9931562e-39
-0.041751634 0.0010251647 0.069311775 1.0315063e-38
-0.036793496 0.0021995166 0.068754762 9.8530073e-39
-0.032785162 0.0017566048 0.067647234 8.0955563e-39
-0.029494965 0.0007240721 0.067600287 7.8171883e-39
0.044955753 0.0042996202 0.069823407 6.9842173e-39
0.048525993 0.0033757095 0.067758724 7.1678799e-39
0.052173421 0.002060547 0.067374803 7.3529858e-39
0.055691354 0.00061577867 0.066966005 1.2251614e-38
-0.076099202 0.007471296 0.068683058 1.2904815e-38
-0.074377716 0.0058086407 0.068653382 1.2259077e-38
-0.036089618 0.0054933541 0.069373004 8.4607431e-39
-0.0344631 0.0050910371 0.069565654 1.0493759e-38
0.043567318 0.0084456615 0.067686774 7.4441108e-39
0.047191206 0.0071568321 0.06745065 7.2593482e-39
0.05068513 0.0056818575 0.067116842 9.7540336e-39
-0.078022659 0.011303425 0.06950406 1.2628219e-38
0.038817573 0.013542996 0.067846827 7.7203376e-39
0.042254146 0.012305737 0.06744571 7.2589881e-39
0.045719873 0.01063529 0.066946276 7.1667784e-39
0.034087036 0.018972768 0.067567497 7.8103668e-39
0.037384182 0.017440388 0.06745518 7.350462e-39
0.040708933 0.015743524 0.067229688 7.1671414e-39
-0.044185013 0.024689073 0.065441079 1.2534228e-38
0.028979989 0.024192477 0.067527823 7.7188886e-39
0.032494258 0.022482097 0.06746833 7.4422961e-39
0.035777189 0.020802936 0.06747999 7.8132409e-39
-0.046969514 0.028712945 0.066126458 1.2258003e-38
-0.04439735 0.02578849 0.06564749 1.2627861e-38
0.024168143 0.028943626 0.067195497 8.1787878e-39
0.0272917 0.027326819 0.06749633 7.5348519e-39
0.03064773 0.025592124 0.067326039 7.535575e-39
-0.050626252 0.033901494 0.067563854 1.2073607e-38
-0.048809797 0.032360561 0.06614802 1.2165445e-38
0.019030903 0.033988304 0.067472756 8.5490038e-39
0.0223991 0.032386094 0.067396417 7.9976307e-39
0.025713516 0.030425901 0.067280307 8.5544058e-39
-0.052049395 0.037679598 0.067223996 1.1889219e-38
-0.049567789 0.036010124 0.065533079 1.207288e-38
0.014010696 0.039014958 0.067214049 9.4763439e-39
0.017384408 0.037241574 0.067446977 8.8313389e-39
0.020528449 0.035799015 0.067794211 8.46545e-39
-0.055364884 0.043796193 0.068975717 1.152008e-38
-0.053520285 0.042330205 0.067272499 1.1704106e-38
0.0090866871 0.043808717 0.067273781 1.0311835e-38
0.012328877 0.042069752 0.067551643 1.0034184e-38
0.015742144 0.041086111 0.068661518 1.012747e-38
-0.055576872 0.04788848 0.068446793 1.1612273e-38
-0.054268282 0.047433801 0.066914245 1.1519717e-38
0.0090637226 0.045895264 0.06817209 1.0403678e-38
0.010899412 0.045622841 0.068677641 1.1051925e-38
0.01773164 0.049162123 0.069529139 1.0501601e-38
-0.055936143 0.05266751 0.068449296 1.1427885e-38
-0.054046083 0.052734531 0.066692725 1.1520079e-38
0.018824659 0.051435594 0.069354154 1.1331729e-38
0.020808633 0.053890437 0.069391727 1.1331359e-38
-0.055707186 0.056484718 0.069080144 1.1335693e-38
-0.053289097 0.057567775 0.067462146 1.152044e-38
-0.012898616 0.059305873 0.065427169 1.2442028e-38
0.022313531 0.056982473 0.069517605 1.1054771e-38
-0.051692586 0.062119015 0.068147168 1.1705195e-38
-0.048796427 0.063575134 0.066661909 1.1889943e-38
-0.021290518 0.064325884 0.066341214 1.225763e-38
-0.017945474 0.063127473 0.066798717 1.253458e-38
-0.014089682 0.060611617 0.066009499 1.2810813e-38
0.02321925 0.061378419 0.069696859 1.0870749e-38
0.025586329 0.064464599 0.069262981 1.1976738e-38
-0.050587457 0.065665923 0.069127023 1.161264e-38
-0.047255535 0.066754103 0.068051398 1.1797389e-38
-0.042639021 0.068346024 0.067637272 1.1797387e-38
-0.037807465 0.068918049 0.067095608 1.1797386e-38
-0.032286197 0.069006383 0.066697523 1.179738e-38
-0.027224656 0.068501793 0.067324586 1.2073244e-38
-0.022756156 0.06696222 0.06755726 1.234983e-38
-0.019233257 0.065688051 0.067828521 1.2626778e-38
0.024748666 0.068587855 0.069294386 1.1149127e-38
0.025663711 0.067520186 0.069321461 1.197817e-38
-0.046114042 0.070129082 0.069323204 1.1983937e-38
-0.041640677 0.070385158 0.069220178 1.1704474e-38
-0.037512723 0.070631139 0.068479598 1.188922e-38
-0.032716457 0.070592061 0.068499677 1.2165807e-38
-0.028575078 0.070433423 0.068740301 1.2165803e-38
0.023716694 0.072338253 0.069177739 1.2163629e-38
0.02543965 0.070525125 0.069612928 1.1424969e-38
0.019737879 0.079229861 0.069269493 1.3179583e-38
0.021303836 0.077030763 0.068964534 1.3272136e-38
0.016663907 0.08239466 0.069611713 1.3733123e-38
0.013309096 0.085717939 0.069584787 1.484164e-38
0.015277523 0.08514484 0.069878101 1.3734205e-38
0.073599152 -0.121232 0.07066834 1.1701319e-38
0.077829234 -0.1214277 0.070977204 8.7449474e-39
0.082594685 -0.12137502 0.071328059 8.1006584e-39
0.087431557 -0.12136081 0.071344703 6.9917773e-39
0.092057884 -0.12082777 0.071812116 6.0705357e-39
0.095924199 -0.12045459 0.071998261 2.296993e-39
0.064452656 -0.11571059 0.07022129 6.989964e-39
0.068548493 -0.1163797 0.070408359 6.3460533e-39
0.072818674 -0.1170994 0.070987493 6.1598586e-39
0.077755272 -0.1171724 0.071582466 6.1562503e-39
0.082564525 -0.11722945 0.071998879 5.9714947e-39
0.087616384 -0.11735835 0.072243616 5.6037898e-39
0.092609137 -0.11740605 0.07224156 5.6970644e-39
0.09732049 -0.11700802 0.072189175 5.1460486e-39
0.10160045 -0.11596765 0.072001256 4.2262517e-39
0.10594391 -0.11524932 0.070250623 6.6168753e-39
0.059418969 -0.11026166 0.070057921 7.080366e-39
0.063502602 -0.11194216 0.070489071 7.1732903e-39
0.06786155 -0.11198852 0.071104132 7.0785681e-39
0.072673798 -0.11219523 0.071891658 5.6037827e-39
0.077512912 -0.11232793 0.072140768 5.5112284e-39
0.082565866 -0.11240876 0.07229276 5.6030611e-39
0.087609306 -0.11240987 0.072381698 5.6948952e-39
0.092606954 -0.11242199 0.072387785 5.6949008e-39
0.097524717 -0.11238134 0.072369069 5.6030681e-39
0.10238069 -0.11234246 0.072391666 5.3282777e-39
0.10689784 -0.11161473 0.072284088 4.4102814e-39
0.11040351 -0.11075909 0.07163433 1.3775521e-39
0.05823509 -0.10629642 0.070437245 9.2992016e-39
0.062959805 -0.10685038 0.070855178 7.1707665e-39
0.067578189 -0.10737704 0.071460128 6.8923762e-39
0.072542682 -0.10737425 0.072092339 5.6027009e-39
0.077482753 -0.10736889 0.072316535 4.8676484e-39
0.082539737 -0.10741405 0.072301276 5.0516852e-39
0.087608434 -0.10741295 0.0723508 5.2349918e-39
0.092565998 -0.10738786 0.072439164 5.6941679e-39
0.097541504 -0.10739376 0.072395295 5.8785676e-39
0.10246025 -0.10739178 0.072412401 5.7867377e-39
0.10740012 -0.10734358 0.072386384 5.4197544e-39
0.11154225 -0.10673869 0.071925439 5.0538516e-39
0.11528452 -0.10508401 0.070354983 9.183984e-40
0.049722873 -0.1001233 0.070732497 6.245562e-39
0.052751046 -0.10176469 0.070755653 8.098478e-39
0.05810402 -0.1019254 0.071186997 6.3417205e-39
0.06256178 -0.10220747 0.071818843 6.8938139e-39
0.067461155 -0.10236333 0.071994282 6.6147075e-39
0.072464041 -0.10242735 0.072098464 6.1540839e-39
0.077519543 -0.10249055 0.072249703 5.3268329e-39
0.082530633 -0.10241816 0.072377682 4.5917818e-39
0.08760713 -0.10239989 0.072331734 4.8680128e-39
0.092639998 -0.10242697 0.072330832 5.1431563e-39
0.097524829 -0.10241868 0.072447233 5.510134e-39
0.10240078 -0.10239042 0.072347067 5.7863705e-39
0.1073845 -0.1024228 0.072367005 5.9704101e-39
0.1123336 -0.10237128 0.072284535 5.603787e-39
0.11614227 -0.10167867 0.071501084 5.5155514e-39
0.048478592 -0.09677919 0.071071014 9.2055444e-39
0.052934621 -0.097112902 0.071392216 6.8981411e-39
0.057658117 -0.097444803 0.072117172 6.1562461e-39
0.062463243 -0.097460777 0.072300896 6.4310309e-39
0.067405276 -0.097518988 0.072238401 6.2462781e-39
0.072406709 -0.09757895 0.072154082 6.1548013e-39
0.07746207 -0.097521454 0.072182164 5.9707688e-39
0.082571201 -0.097578861 0.072275244 5.2349974e-39
0.087552629 -0.097531818 0.07233119 4.5921419e-39
0.092560805 -0.097558878 0.072361164 4.7758171e-39
0.0975798 -0.097513027 0.072372764 5.1431577e-39
0.10242334 -0.097523272 0.072400674 5.510134e-39
0.10739215 -0.097541071 0.072399996 6.06224e-39
0.11235981 -0.097556412 0.072329894 5.9707716e-39
0.11688914 -0.097394831 0.071601443 6.066207e-39
0.12050425 -0.09622138 0.071082741 5.4305696e-39
0.043753054 -0.091429912 0.071570389 8.1895862e-39
0.047784962 -0.092355743 0.071642347 7.8211764e-39
0.052662876 -0.092429884 0.072299622 5.880378e-39
0.057504673 -0.092563659 0.072355092 6.246634e-39
0.062393509 -0.092618376 0.072343856 6.3377493e-39
0.067376278 -0.092707843 0.072040357 5.3268287e-39
0.072352462 -0.092758834 0.07181906 5.2357135e-39
0.077514984 -0.092775382 0.071696416 6.3388311e-39
0.082560457 -0.092787437 0.07178098 5.9704073e-39
0.087657824 -0.092635922 0.072197296 5.2353576e-39
0.092606708 -0.092654482 0.072295971 4.5921433e-39
0.097446717 -0.092611216 0.072355695 4.6839802e-39
0.10234681 -0.092639431 0.072345085 5.1431591e-39
0.10736657 -0.092597045 0.072406597 5.6941693e-39
0.112423 -0.092603095 0.072388716 6.2462753e-39
0.11719322 -0.09259735 0.071627378 6.1566048e-39
0.12077572 -0.092495389 0.070864573 8.6534594e-39
0.039095145 -0.086262465 0.07174059 8.559089e-39
0.042665269 -0.087263219 0.071989283 8.0981192e-39
0.047650948 -0.087523513 0.072304599 5.9725737e-39
0.052599724 -0.087580226 0.072381258 5.970766e-39
0.057537068 -0.087604478 0.072373644 5.9696814e-39
0.062400363 -0.087593883 0.072205141 6.0615169e-39
0.067272626 -0.087540522 0.071851984 5.5104997e-39
0.072150178 -0.087747552 0.071274735 5.2346275e-39
0.077273197 -0.088266477 0.070889406 5.5115773e-39
0.082906418 -0.087884396 0.071125448 5.4190243e-39
0.087725401 -0.087702766 0.071909919 5.8789319e-39
0.092635013 -0.087612152 0.072315454 5.511227e-39
0.097573876 -0.087628238 0.072252072 4.7758143e-39
0.10241862 -0.08764261 0.072241366 4.683976e-39
0.10737256 -0.08761064 0.072352 5.3271917e-39
0.11233876 -0.087664969 0.072194621 6.4303064e-39
0.11707947 -0.087742366 0.07143043 6.6157865e-39
0.12121101 -0.087310962 0.070700414 8.9282569e-39
0.03423395 -0.080844954 0.071507931 7.5424119e-39
0.037829023 -0.082250975 0.072161488 7.6356935e-39
0.042589433 -0.082488894 0.072349124 6.2491634e-39
0.047610581 -0.082536884 0.072411902 5.9707674e-39
0.052620567 -0.082522005 0.072413474 5.6941693e-39
0.057530925 -0.082539469 0.07244274 5.8778431e-39
0.062369753 -0.08250726 0.072245255 5.6019779e-39
0.067267612 -0.082486711 0.071912922 5.8778445e-39
0.071938179 -0.082526356 0.071419843 6.2451809e-39
0.075795382 -0.083680093 0.07041759 5.8774718e-39
0.083613165 -0.082512781 0.071009748 4.3162711e-39
0.087836303 -0.082563721 0.071862049 5.4204677e-39
0.092618056 -0.08252883 0.072245002 6.1555258e-39
0.09748631 -0.082538195 0.072204255 5.694898e-39
0.10250752 -0.082594544 0.072073355 4.9591224e-39
0.10741061 -0.082612902 0.072173208 4.8672883e-39
0.11215752 -0.082677104 0.071802467 5.878569e-39
0.11682742 -0.082929477 0.07090205 7.2604398e-39
0.12058549 -0.084151506 0.070695087 9.1108503e-39
0.029521391 -0.075656973 0.070941627 7.5395322e-39
0.032989725 -0.076980911 0.072182879 7.264746e-39
0.037508123 -0.077462956 0.072356485 6.433912e-39
0.042546943 -0.077469595 0.072434284 6.1544412e-39
0.047601588 -0.077496774 0.072425038 5.6941707e-39
0.052626196 -0.077461533 0.072420634 5.5101354e-39
0.057570707 -0.077485733 0.072395466 5.1427948e-39
0.062449932 -0.077412859 0.072307542 5.5105011e-39
0.067337938 -0.077381164 0.072142705 5.9700415e-39
0.072232641 -0.077328682 0.071772918 6.4302952e-39
0.077260092 -0.076789074 0.071197338 6.1533412e-39
0.082949631 -0.077146672 0.071128644 4.7754486e-39
0.087709814 -0.077360667 0.072005123 4.7765318e-39
0.092551164 -0.077527553 0.072171047 5.6037813e-39
0.097524159 -0.077474535 0.072212279 5.9704073e-39
0.10243131 -0.077523626 0.071963929 5.6941777e-39
0.10732261 -0.077615604 0.071962595 5.4183027e-39
0.11199364 -0.077771783 0.071280539 5.9707604e-39
0.11680125 -0.078354351 0.070391066 8.0023363e-39
0.12060514 -0.078818575 0.070133522 1.243672e-38
0.024708029 -0.070167921 0.07122992 8.0033901e-39
0.028161526 -0.071898155 0.072109722 6.9874389e-39
0.032441325 -0.072380587 0.072412275 6.4339092e-39
0.0374244 -0.072484642 0.072508782 6.3388339e-39
0.042476289 -0.072526529 0.072721012 6.0622358e-39
0.047649663 -0.072452895 0.072736643 5.3264602e-39
0.052646346 -0.072434723 0.072505899 4.8672841e-39
0.057564721 -0.072404288 0.072419323 5.0509607e-39
0.062419511 -0.072404087 0.072397359 5.6941735e-39
0.067373529 -0.072369754 0.072281629 6.0622386e-39
0.072340898 -0.072364032 0.072186433 6.1547943e-39
0.077390514 -0.072268479 0.071918353 6.6172116e-39
0.082679227 -0.072201513 0.071939059 5.9718436e-39
0.087574974 -0.072407015 0.072282031 4.7754528e-39
0.092486933 -0.072424687 0.072069831 4.1326001e-39
0.097496152 -0.072452068 0.072111346 5.4186656e-39
0.10240184 -0.072438873 0.071768343 6.0618826e-39
0.10716834 -0.072601445 0.071411736 6.6132613e-39
0.11135041 -0.073054142 0.071120322 7.6306685e-39
0.11608446 -0.074187517 0.070312202 9.5718242e-39
0.023440806 -0.066673882 0.072016187 7.2643873e-39
0.02741958 -0.067323394 0.072353259 6.5261048e-39
0.032353159 -0.06755653 0.072740838 6.4310281e-39
0.037411422 -0.067611061 0.073214568 6.4299435e-39
0.042604066 -0.067505121 0.073252656 5.5104927e-39
0.0477052 -0.06739793 0.072977096 4.8672827e-39
0.052744657 -0.067413978 0.072647966 4.6836131e-39
0.057665642 -0.067411788 0.072446875 5.2349904e-39
0.062446013 -0.067376152 0.072423846 5.6030569e-39
0.067361601 -0.067363419 0.072391793 5.8785676e-39
0.072361276 -0.067322902 0.072357275 5.9704031e-39
0.077495314 -0.067327596 0.072338015 5.7867321e-39
0.082512736 -0.067395933 0.072347365 5.4186656e-39
0.087522864 -0.067371681 0.07222455 4.9591252e-39
0.092559204 -0.067273855 0.072003432 5.0509593e-39
0.097624011 -0.067393869 0.072086908 5.7860104e-39
0.10223661 -0.06746953 0.071653366 6.5217846e-39
0.10670497 -0.067798115 0.070850171 7.536668e-39
0.11075505 -0.068830587 0.070342824 9.1998061e-39
0.018697063 -0.061475772 0.07184682 6.98672e-39
0.02249882 -0.062376499 0.072406158 6.5253845e-39
0.027187288 -0.06267418 0.07296773 6.2477186e-39
0.032249704 -0.062777191 0.073633224 6.5217804e-39
0.037518848 -0.062738135 0.073784336 6.1540671e-39
0.042700633 -0.062581673 0.073549621 4.8672813e-39
0.04765543 -0.06247846 0.073296122 4.3162683e-39
0.052687977 -0.062495418 0.072833434 4.8672869e-39
0.05760343 -0.062478628 0.072545156 5.4186642e-39
0.062395472 -0.062449798 0.072374687 5.51122e-39
0.06733533 -0.062399525 0.072415374 5.6026967e-39
0.072416291 -0.062403157 0.07239262 5.6026967e-39
0.077462628 -0.062388998 0.07235419 5.4186628e-39
0.082590029 -0.062408309 0.07238429 5.1427962e-39
0.087620243 -0.062441163 0.072380058 5.4183027e-39
0.092625856 -0.062430989 0.072299629 5.8778445e-39
0.097483963 -0.062509619 0.072250091 6.5225006e-39
0.10188013 -0.062669337 0.071239628 7.3533529e-39
0.10618467 -0.06333293 0.070489958 1.040123e-38
0.014182027 -0.056313086 0.071817189 7.3544249e-39
0.017666135 -0.057495706 0.072414733 6.5253831e-39
0.022101874 -0.057824284 0.07296627 6.2480774e-39
0.027140178 -0.057991292 0.073927395 6.5217818e-39
0.032301735 -0.058028623 0.074241161 6.7969239e-39
0.037749946 -0.057856213 0.074198313 5.0509537e-39
0.04274518 -0.057696793 0.073836565 4.2244328e-39
0.047714166 -0.057522189 0.073464327 4.5917776e-39
0.05277551 -0.057626441 0.073071122 5.1427948e-39
0.057610359 -0.057599172 0.072627261 5.4190243e-39
0.06241959 -0.057577442 0.072458543 5.5108612e-39
0.067347258 -0.057542302 0.07239379 5.4186628e-39
0.072374858 -0.057566617 0.072420299 5.3268259e-39
0.077464074 -0.057552036 0.072456136 5.1427948e-39
0.082546696 -0.057556272 0.072380878 5.3264672e-39
0.087609194 -0.05758404 0.072374158 5.693812e-39
0.09252584 -0.057535306 0.072359145 6.3381066e-39
0.097176544 -0.057671942 0.071928062 7.1689617e-39
0.10141421 -0.058407433 0.0707715 8.4618683e-39
0.10518462 -0.059946377 0.070018828 8.0880565e-39
0.0093412716 -0.050720178 0.071474783 7.8168534e-39
0.012901528 -0.052305672 0.072294489 6.5246629e-39
0.017128749 -0.052989297 0.072936654 6.4317526e-39
0.021792913 -0.053298686 0.074113376 6.7068975e-39
0.027123101 -0.05403734 0.074465923 7.4390633e-39
0.032659791 -0.054396249 0.074621633 5.9696758e-39
0.038122267 -0.053134874 0.074462056 3.7652553e-39
0.042863026 -0.052730769 0.074108161 4.3162711e-39
0.047840822 -0.052414253 0.073424138 4.5928594e-39
0.052700941 -0.052533925 0.07297489 4.8687288e-39
0.057589658 -0.052693527 0.072902977 5.327549e-39
0.062452834 -0.052638825 0.07266479 5.2349918e-39
0.067370929 -0.052653059 0.07261283 5.2346303e-39
0.072410829 -0.052697744 0.072482884 5.0509579e-39
0.07745079 -0.052686609 0.072456524 5.3264644e-39
0.082530051 -0.052654158 0.072426535 5.6019723e-39
0.087579608 -0.052603256 0.072361119 6.1540727e-39
0.092488974 -0.052675426 0.072272055 6.9838487e-39
0.096688315 -0.052880347 0.07130488 8.3696741e-39
0.10107092 -0.052209262 0.070328139 1.0494851e-38
0.0046372148 -0.045750156 0.070952736 8.6556511e-39
0.0082155773 -0.047139946 0.072206736 6.5235839e-39
0.012012214 -0.04810591 0.072907634 6.2477186e-39
0.016622977 -0.048893277 0.073953278 6.6161452e-39
0.020811401 -0.04929046 0.074894294 7.2550392e-39
0.039490581 -0.048046485 0.074593961 4.5003079e-39
0.043220423 -0.047406189 0.074045561 5.4197474e-39
0.04777899 -0.047461443 0.072781056 4.5950258e-39
0.052499499 -0.047586516 0.072706394 4.9645328e-39
0.057471402 -0.047652982 0.073230669 5.0524026e-39
0.062430412 -0.04773955 0.073146351 5.0509579e-39
0.06735108 -0.047703627 0.073108546 4.959121e-39
0.072437569 -0.047739025 0.072993048 5.2346275e-39
0.077528007 -0.047682166 0.072700739 5.4182985e-39
0.082577661 -0.047622558 0.072435357 5.8782032e-39
0.087568387 -0.047609325 0.072314285 6.6147019e-39
0.092358932 -0.047669258 0.071770415 7.4469905e-39
0.096902251 -0.047917448 0.071032517 8.2799854e-39
0.10051973 -0.049043618 0.070225015 6.984555e-39
0.0034344215 -0.041782036 0.072147138 6.70978e-39
0.0070471624 -0.043039072 0.072863959 6.2473571e-39
0.010835671 -0.043926824 0.074204616 6.9856522e-39
0.043592058 -0.043272994 0.073956959 6.1548013e-39
0.047808517 -0.042928655 0.072842903 5.2378785e-39
0.052331347 -0.04296039 0.073091082 4.9641741e-39
0.057556592 -0.042905565 0.073687993 4.8683673e-39
0.062535428 -0.042706031 0.073725499 4.7754472e-39
0.067453757 -0.042719394 0.073575445 5.2346247e-39
0.072521947 -0.042661868 0.073376104 5.3264616e-39
0.077667855 -0.042504836 0.072819553 5.5104997e-39
0.082556494 -0.04252214 0.072446927 6.3384751e-39
0.087378547 -0.042666383 0.072060116 7.0785667e-39
0.09186881 -0.043129671 0.071395524 8.4661843e-39
0.09578982 -0.044262972 0.070837505 1.0773236e-38
-0.0011026164 -0.036605231 0.072191976 7.1714812e-39
0.0020935251 -0.037839517 0.072691053 6.3395541e-39
0.0060564028 -0.039125871 0.074147798 6.4331931e-39
0.044289436 -0.039745986 0.074473217 5.0513222e-39
0.047840707 -0.038898926 0.074141189 5.5105053e-39
0.052734286 -0.038795352 0.074245766 4.867647e-39
0.05771362 -0.038174607 0.074441321 4.5917748e-39
0.06263157 -0.03810735 0.07432913 5.0509523e-39
0.067601569 -0.037799142 0.074131876 5.3264602e-39
0.072784677 -0.037379354 0.073419087 5.0509607e-39
0.077542007 -0.037438452 0.072527014 5.8785732e-39
0.082477652 -0.037526719 0.072297737 6.8938153e-39
0.08691442 -0.037901908 0.071712598 8.9278813e-39
0.090837806 -0.039488316 0.070990086 1.1237459e-38
-0.0060687098 -0.031173114 0.072216168 8.2803553e-39
-0.0028058505 -0.032653637 0.072622575 6.6165026e-39
0.0010571473 -0.034171723 0.073832914 6.2469998e-39
0.059096828 -0.03469912 0.074904203 5.1427878e-39
0.063532986 -0.033799957 0.07476645 5.0509537e-39
0.068255454 -0.032358035 0.07419771 5.1427962e-39
0.072724283 -0.032297771 0.0728475 5.41903e-39
0.077506892 -0.032363653 0.072453298 6.6172256e-39
0.081956461 -0.032791194 0.072130963 8.7424082e-39
0.085652612 -0.034109995 0.071089521 1.4192044e-38
-0.010688731 -0.025845589 0.072008543 9.9395123e-39
-0.0076006814 -0.027391346 0.072488748 6.8005351e-39
-0.0040722657 -0.028776865 0.073187359 6.4306694e-39
0.064312764 -0.026506145 0.07457374 4.8680142e-39
0.068048418 -0.027078396 0.073334426 5.4186698e-39
0.072465338 -0.027341906 0.072482482 6.24772e-39
0.077038459 -0.027745264 0.072300054 7.9108455e-39
0.080648467 -0.029082706 0.071810164 1.2623632e-38
-0.015427202 -0.020970196 0.071240745 8.2731358e-39
-0.012183698 -0.022130834 0.072423853 6.9838431e-39
-0.0091231083 -0.023678426 0.07316497 6.1551671e-39
0.063512564 -0.021707619 0.073805466 5.3268329e-39
0.067565955 -0.022301005 0.072633617 6.063326e-39
0.072058707 -0.022717068 0.072254337 7.447708e-39
0.075767212 -0.024293594 0.07172168 1.0221503e-38
-0.020336175 -0.015117711 0.07174623 7.8172318e-39
-0.016757762 -0.01706234 0.072378576 6.890923e-39
-0.013748092 -0.018612767 0.072893083 6.7076234e-39
0.058913551 -0.016259778 0.074062943 6.1551615e-39
0.062825434 -0.017247984 0.072861515 5.9711289e-39
0.067254514 -0.017751737 0.072346047 6.9860081e-39
0.070678607 -0.01881085 0.071748093 9.1115495e-39
-0.021358971 -0.011809598 0.072351106 6.8916391e-39
-0.01854316 -0.01349047 0.072739057 6.9831229e-39
0.054515146 -0.010881126 0.074412756 5.4186656e-39
0.058182258 -0.012156443 0.072978973 6.0633246e-39
0.062441848 -0.012680443 0.072336107 6.8927307e-39
0.066039123 -0.013904769 0.071934603 8.278549e-39
-0.065742031 -0.0055446052 0.072417349 9.8576877e-39
-0.062114678 -0.0061109094 0.072196908 1.0227186e-38
-0.057817899 -0.0065335017 0.072198413 1.2350952e-38
-0.052531514 -0.0061674933 0.072143331 1.2166204e-38
-0.048477195 -0.0057273074 0.071546137 1.1702688e-38
-0.02589309 -0.0064537232 0.072343498 6.7079681e-39
-0.023159474 -0.0080811568 0.072575226 6.8902e-39
-0.019746168 -0.0094903596 0.0738727 8.0840516e-39
0.053501014 -0.0068487064 0.073201321 5.8789291e-39
0.057503153 -0.0075711948 0.07240916 6.708338e-39
0.061219648 -0.0086654015 0.072052345 7.7239277e-39
-0.071404673 -0.0012357923 0.072204709 9.9502378e-39
-0.067243919 -0.0021767882 0.072462015 1.0505596e-38
-0.062360961 -0.0023349291 0.072559595 9.3063454e-39
-0.057479262 -0.0022389847 0.072735466 8.6588082e-39
-0.052490674 -0.002319773 0.072592422 8.8428351e-39
-0.047594186 -0.002340422 0.07234437 1.0596723e-38
-0.043111008 -0.001587076 0.071974926 1.2440632e-38
-0.03864982 -0.00052853336 0.071662851 9.4845822e-39
-0.030926282 -0.00087949814 0.072312959 6.9823872e-39
-0.027723849 -0.0027901558 0.072529539 7.07495e-39
-0.024468502 -0.004268799 0.073275745 7.6274063e-39
0.04891422 -0.0015232088 0.073411398 6.4313896e-39
0.052713942 -0.0024441641 0.072508372 6.6161424e-39
0.056505635 -0.0032831978 0.07212963 7.539898e-39
-0.075498149 0.0037531029 0.072594531 9.5807266e-39
-0.07243631 0.0027509965 0.072631121 9.3048698e-39
-0.067265809 0.0024894967 0.073027529 6.9982036e-39
-0.062418796 0.0024503507 0.072847486 7.3633638e-39
-0.05752188 0.0024136796 0.072938427 7.4544762e-39
-0.052550923 0.0023715172 0.072864488 7.4541175e-39
-0.047557622 0.0023603404 0.072862595 7.2700948e-39
-0.042558718 0.0024999001 0.072582006 9.4871297e-39
-0.037466783 0.002866128 0.072341681 9.8530326e-39
-0.032679375 0.0022691116 0.072543859 7.4455233e-39
-0.029195506 0.00087543501 0.07293418 7.6270419e-39
0.044150047 0.0038351903 0.073558122 6.7069031e-39
0.047862772 0.002746684 0.072557636 6.8001763e-39
0.051741868 0.00183657 0.07228224 7.4480625e-39
-0.076365404 0.0077008293 0.072583981 9.3966941e-39
-0.072615214 0.0071575036 0.073429815 7.7368463e-39
-0.067302406 0.0074094338 0.073609903 7.1789725e-39
-0.062531799 0.0073244842 0.073511332 7.3626379e-39
-0.057567626 0.0074224649 0.0736451 7.4541119e-39
-0.052619874 0.007456712 0.073615447 7.3615575e-39
-0.04754319 0.0074618901 0.073564909 7.3611988e-39
-0.042489268 0.0074669961 0.073420107 7.2686528e-39
-0.037550289 0.0070906612 0.073237926 7.5441846e-39
-0.034026261 0.0062718163 0.073390819 1.0217875e-38
0.039461706 0.0092667984 0.073529854 7.0749668e-39
0.042998094 0.0078960583 0.072641186 6.892372e-39
0.04688409 0.0069758906 0.072287008 7.1703924e-39
0.05032222 0.0054730996 0.07169719 1.5115078e-38
-0.080688126 0.013832197 0.072896048 1.0320091e-38
-0.078197211 0.011917021 0.072914325 9.8591212e-39
-0.072164655 0.012289193 0.074301504 6.6268834e-39
-0.067497104 0.01222121 0.074111938 7.2708038e-39
-0.062361892 0.012271218 0.074202433 7.3626351e-39
-0.057499688 0.012382736 0.074133165 7.3622778e-39
-0.052588183 0.012463851 0.074031964 7.3615561e-39
-0.047588065 0.012546295 0.073844753 7.5452285e-39
-0.042590532 0.012601386 0.07369858 7.5445139e-39
-0.03818934 0.01210867 0.073819079 6.9902779e-39
-0.034623455 0.011063277 0.074717283 8.3699894e-39
0.034605555 0.014631848 0.074057795 7.2600867e-39
0.038180333 0.01318795 0.072677001 7.1689603e-39
0.041975234 0.01210111 0.072254419 7.2618678e-39
0.045347013 0.010494963 0.071988873 5.6019751e-39
-0.085270248 0.019350721 0.073998071 1.059883e-38
-0.082387924 0.017102331 0.073021799 1.0690313e-38
-0.076300487 0.017753875 0.074787438 6.9949414e-39
-0.07239642 0.016881764 0.074599989 7.0864182e-39
-0.067644291 0.016487336 0.074680634 7.1789669e-39
-0.06234321 0.016948374 0.074570477 7.2704395e-39
-0.057257511 0.017295986 0.074504867 7.3619177e-39
-0.052445915 0.017493308 0.074317567 7.5459474e-39
-0.047410529 0.01749057 0.074008815 7.6374242e-39
-0.042797387 0.017146952 0.073973767 7.2672151e-39
-0.038882241 0.015909124 0.074257798 6.710468e-39
0.033606317 0.018360145 0.072924256 7.1675197e-39
0.036976259 0.017168146 0.072267316 6.9838375e-39
0.040459339 0.015548787 0.072207421 9.6621925e-39
-0.085936613 0.022657959 0.074156471 1.1983214e-38
-0.084540486 0.020729199 0.073759764 1.0875787e-38
-0.076003268 0.022034986 0.074921772 7.2715213e-39
-0.07468687 0.02142399 0.074921653 7.0867699e-39
-0.060835134 0.021124445 0.074843131 6.9942197e-39
-0.056763358 0.021716272 0.074777588 7.5463075e-39
-0.052071374 0.022452055 0.074502081 8.0062067e-39
-0.047650356 0.022188138 0.07421796 7.7289023e-39
-0.043760467 0.020919425 0.074435391 6.8977193e-39
0.024882153 0.024823541 0.074018337 7.439792e-39
0.028574649 0.023652269 0.073070325 7.259351e-39
0.032062311 0.022155426 0.072323978 7.0756758e-39
0.035503436 0.02048867 0.071552239 7.9079504e-39
-0.087041281 0.026195621 0.074349627 1.3181399e-38
-0.055891853 0.026281482 0.074822232 8.838854e-39
-0.052004978 0.026903041 0.074580193 8.1895189e-39
-0.048822161 0.025905943 0.074386433 7.5445167e-39
0.023590926 0.028418902 0.073003411 7.5348561e-39
0.027153891 0.027100297 0.072498359 6.9831187e-39
0.030496217 0.025552209 0.071596712 6.9845606e-39
-0.052105751 0.034881845 0.070178419 1.161479e-38
0.018866796 0.033884738 0.072738543 7.7199634e-39
0.022173943 0.0321787 0.072400577 6.798726e-39
0.025345366 0.030546835 0.072103716 7.4462618e-39
-0.053638067 0.038296822 0.07096979 1.198177e-38
0.0140146 0.039183006 0.072737277 7.3508152e-39
0.017366014 0.03733138 0.072434232 6.9831159e-39
0.020542542 0.035626151 0.071702309 7.2618762e-39
-0.055449538 0.043292716 0.071884289 1.1611181e-38
-0.054593336 0.041633125 0.070969984 1.1518993e-38
0.0038656516 0.044829436 0.074819997 1.2799694e-38
0.0087683117 0.044064969 0.072914436 8.8302585e-39
0.012673719 0.04259447 0.072554186 7.7228305e-39
0.015695896 0.041236188 0.072110109 8.0012223e-39
-0.05589978 0.047678422 0.071170934 1.0964733e-38
0.0037505522 0.048389662 0.074239284 8.3728452e-39
0.0078624804 0.047377653 0.073156759 8.7416417e-39
0.012339631 0.047490984 0.073038898 9.5753513e-39
0.016336447 0.048227135 0.072480142 1.0222867e-38
-0.056481615 0.053036038 0.071829297 1.0965097e-38
-0.054940473 0.052894097 0.070088029 1.152007e-38
-0.0013361842 0.053493738 0.07463704 8.4657569e-39
0.0027539767 0.052623171 0.074283518 8.1898791e-39
0.0077857827 0.052346792 0.074063435 8.1902434e-39
0.012680886 0.052439108 0.073681697 8.1931343e-39
0.017571557 0.052679665 0.072868213 1.0501272e-38
0.020772126 0.05390143 0.072150946 1.0777476e-38
-0.056459084 0.057559032 0.072608225 1.0872546e-38
-0.054691907 0.05863256 0.070934512 1.1150938e-38
-0.0016868822 0.056521285 0.074702367 8.2827936e-39
0.0027654981 0.057144433 0.07442414 8.2831481e-39
0.0077044824 0.057541374 0.074269265 8.2835068e-39
0.012589965 0.057535537 0.074003309 8.1913196e-39
0.017730942 0.057384923 0.073558137 8.5637217e-39
0.021893095 0.057665911 0.072670318 1.1148798e-38
-0.055815421 0.061616141 0.073490538 1.0596316e-38
-0.053438257 0.062869251 0.072095029 1.0965825e-38
-0.00023787515 0.06015991 0.07483612 8.1898777e-39
0.0031639882 0.062389608 0.074675836 8.0994743e-39
0.0078910068 0.062458858 0.074369982 8.1913126e-39
0.012723994 0.062407505 0.074023098 8.1916713e-39
0.017498365 0.062329784 0.073881321 8.0080101e-39
0.022307167 0.062454455 0.072863728 1.0133927e-38
0.025630385 0.06381873 0.072999634 1.0225017e-38
-0.051585827 0.066338368 0.07299339 1.1150217e-38
-0.047948617 0.068264917 0.072243147 1.1150576e-38
-0.043234028 0.069337398 0.071260959 1.1427167e-38
-0.039101761 0.069761418 0.070751339 1.1611557e-38
-0.032300021 0.069701962 0.070162706 1.1704818e-38
-0.026776519 0.069334917 0.071661383 1.2348752e-38
-0.022844335 0.06834735 0.071399063 1.2257274e-38
-0.018807199 0.065906815 0.070420481 1.2625695e-38
0.0036529566 0.066924818 0.074781604 8.0079975e-39
0.0079102237 0.067255676 0.074511878 8.0991156e-39
0.012766746 0.067195229 0.074201956 8.1913112e-39
0.017537817 0.067370757 0.073990777 8.0076472e-39
0.022698421 0.067526266 0.072998762 9.7651417e-39
0.025716187 0.067140795 0.07252264 1.1055855e-38
-0.04653763 0.070803396 0.073190294 1.1334967e-38
-0.042420141 0.071316414 0.07282532 1.1242412e-38
-0.03770192 0.071640484 0.072288632 1.1611194e-38
-0.032464325 0.071410343 0.072322913 1.1888138e-38
-0.028026612 0.07072261 0.072581612 1.2164724e-38
0.0037760586 0.072306231 0.074721567 8.0072843e-39
0.0079409238 0.072501771 0.074573107 8.0069213e-39
0.012604137 0.072396807 0.074168287 7.9150872e-39
0.017610108 0.072470799 0.074069224 7.548118e-39
0.022747703 0.072234951 0.072823323 1.0042069e-38
0.025164355 0.072732642 0.071665056 1.2345875e-38
0.0040670652 0.077574193 0.074809812 7.7303358e-39
0.0080520483 0.077592067 0.074500456 7.7303386e-39
0.012386857 0.077294417 0.07418178 7.4548378e-39
0.017807629 0.0777357 0.073772632 8.473677e-39
0.021755751 0.07699243 0.072715968 1.0779261e-38
0.0038742216 0.082044765 0.074815169 7.7296198e-39
0.0078815315 0.081572562 0.074443549 7.1782523e-39
0.013510182 0.083022378 0.073551059 1.0133546e-38
0.016985411 0.082302794 0.072837181 1.0871813e-38
0.020475844 0.080675364 0.07389053 1.0042051e-38
0.0086837551 0.08868809 0.073366471 1.2810086e-38
0.012193968 0.086498998 0.072659381 1.2440582e-38
0.015347756 0.085115179 0.072773002 1.1702294e-38
0.0033556947 0.092881449 0.074324623 1.382604e-38
0.0066083362 0.090911657 0.074031994 1.3087391e-38
0.00053936354 0.095149316 0.07479915 1.3918955e-38
0.083015338 -0.11589448 0.075609572 6.7058213e-39
0.08774662 -0.11620664 0.076124877 6.5239538e-39
0.092204519 -0.11636464 0.075915366 6.6175858e-39
0.096999288 -0.11571697 0.075517021 5.0520495e-39
0.074739352 -0.11099667 0.075113058 4.8676414e-39
0.078269675 -0.11178809 0.075435139 5.5105067e-39
0.082927108 -0.11228542 0.076155961 5.9704073e-39
0.087639458 -0.11232948 0.076492749 6.063326e-39
0.092517242 -0.11189417 0.076700486 5.6952609e-39
0.097280838 -0.11170296 0.076200031 5.5119501e-39
0.10225307 -0.11139303 0.075735711 5.5115899e-39
0.10584629 -0.11041138 0.075375669 4.4117136e-39
0.074482635 -0.10861773 0.075165622 4.4999393e-39
0.07826934 -0.10759702 0.075490147 4.5921405e-39
0.082833961 -0.10744856 0.076350033 5.2353604e-39
0.08772064 -0.10743035 0.077036604 5.4190286e-39
0.09264385 -0.10744329 0.077184208 5.970766e-39
0.097619347 -0.10751546 0.077191085 6.0629672e-39
0.10220176 -0.10699669 0.076798797 5.6952651e-39
0.10667821 -0.10699682 0.075880222 5.1438864e-39
0.11074798 -0.10583838 0.07522212 5.0520481e-39
0.078766011 -0.10337993 0.075397409 4.3162697e-39
0.083069719 -0.10279211 0.075825222 4.5917832e-39
0.087724917 -0.10263781 0.076680243 5.0516894e-39
0.092472717 -0.10249451 0.07745558 5.1431563e-39
0.097400747 -0.10243891 0.076813914 5.6941707e-39
0.10263538 -0.10265951 0.076979332 6.3388311e-39
0.10700984 -0.10204624 0.076634653 5.6952637e-39
0.11104242 -0.10193112 0.075486526 6.1555258e-39
0.054488312 -0.095454611 0.07502272 7.5402749e-39
0.058318198 -0.09621153 0.075395294 7.2644041e-39
0.062448572 -0.096850231 0.075356089 6.6179529e-39
0.06619247 -0.097131222 0.075116418 6.0629742e-39
0.073464014 -0.095592119 0.075074248 6.0611708e-39
0.07700333 -0.098048978 0.075056702 6.0615309e-39
0.083674543 -0.098802358 0.075360477 4.4999435e-39
0.087953389 -0.097995214 0.076110832 4.6836229e-39
0.092647016 -0.097626463 0.07677763 5.0513306e-39
0.097319387 -0.097375475 0.077220194 5.1435207e-39
0.10236175 -0.097597308 0.076586828 5.8782046e-39
0.10747362 -0.097686395 0.076737635 6.3391926e-39
0.1112963 -0.097282901 0.076227434 5.6959826e-39
0.049712151 -0.090713546 0.075400069 5.9732953e-39
0.053258307 -0.09155196 0.075825393 7.448794e-39
0.056987621 -0.092424482 0.075802483 7.1704078e-39
0.0620602 -0.092608705 0.075285658 6.1548027e-39
0.066217959 -0.092281006 0.075157404 5.2346345e-39
0.074485399 -0.094885774 0.075032756 6.4310491e-39
0.088995628 -0.093377948 0.075650848 4.408108e-39
0.092947453 -0.092812367 0.076215491 4.5917832e-39
0.097541146 -0.092608497 0.076751612 5.1431661e-39
0.10196345 -0.092413329 0.076753184 5.41903e-39
0.10770525 -0.092938252 0.075818852 6.6143389e-39
0.11202201 -0.092794359 0.075931668 6.5246671e-39
0.043158464 -0.085695289 0.075413041 6.7090611e-39
0.048295755 -0.08687301 0.076051228 6.1566076e-39
0.052611854 -0.087348901 0.076087013 6.9852921e-39
0.05731529 -0.087472387 0.075844094 6.7983813e-39
0.061836969 -0.087672755 0.075375997 6.7058227e-39
0.089369163 -0.089327492 0.075180873 4.8672967e-39
0.093424469 -0.087945178 0.075689331 4.6836187e-39
0.09770491 -0.087773688 0.076353349 4.7754542e-39
0.10199117 -0.087574288 0.076859437 5.1431619e-39
0.10727641 -0.087974563 0.075592533 5.5108669e-39
0.11124704 -0.08827626 0.07541953 6.5225091e-39
0.038425911 -0.082192183 0.075356707 6.5286257e-39
0.0433539 -0.081801914 0.076251663 5.8792976e-39
0.047586851 -0.082298495 0.076699682 6.3409961e-39
0.052474052 -0.082472488 0.076550916 6.7061814e-39
0.057242915 -0.08246664 0.075994328 6.9813348e-39
0.061782718 -0.082430147 0.075443804 6.7051081e-39
0.065846249 -0.081373289 0.075134009 6.7965736e-39
0.093435191 -0.082499988 0.075481564 6.2466466e-39
0.097562432 -0.082534365 0.076118626 5.6945434e-39
0.10162057 -0.082748726 0.076867878 5.0509607e-39
0.10657424 -0.083821237 0.075243399 4.7754514e-39
0.11092795 -0.084009811 0.075107828 6.4285086e-39
0.033254106 -0.076285481 0.075496338 9.1137061e-39
0.038168624 -0.076780304 0.076270744 5.9729352e-39
0.042623743 -0.077313229 0.077093951 5.971852e-39
0.04751933 -0.07739298 0.077010609 6.3381136e-39
0.052383773 -0.077540807 0.076558508 6.6136229e-39
0.057271589 -0.077392511 0.075918436 6.5214301e-39
0.062076926 -0.07734298 0.075524017 6.7054654e-39
0.066776738 -0.076855615 0.075345434 6.613983e-39
0.089545324 -0.076074794 0.075157419 5.3275518e-39
0.093243457 -0.077240475 0.075657792 6.615432e-39
0.097499833 -0.077540167 0.076563045 6.4299603e-39
0.10099688 -0.078720257 0.076488279 5.8778543e-39
0.02859555 -0.07153827 0.07588622 8.5594477e-39
0.032820851 -0.071814053 0.076278731 6.8059357e-39
0.037590221 -0.072296999 0.077234916 5.6952637e-39
0.042536683 -0.072382443 0.077349216 6.0626029e-39
0.047509827 -0.072382919 0.077156864 6.3373891e-39
0.052359235 -0.072405405 0.076534979 6.2455564e-39
0.057349589 -0.072308823 0.075984359 5.9700499e-39
0.062417101 -0.072373055 0.075628817 6.797661e-39
0.066992477 -0.072291218 0.075439289 6.7976596e-39
0.071418785 -0.071275949 0.075107135 6.8894979e-39
0.075045809 -0.070021212 0.075055048 7.3490383e-39
0.084432483 -0.070584133 0.07520023 4.5921448e-39
0.088322908 -0.071548492 0.075618207 3.9489277e-39
0.092633381 -0.07242886 0.076143607 5.0516838e-39
0.096487656 -0.073618956 0.0765194 6.2462837e-39
0.023859374 -0.066200048 0.075795747 7.1739867e-39
0.027735217 -0.06709075 0.076601475 7.2676285e-39
0.032497775 -0.067265026 0.077226847 5.7878195e-39
0.037482027 -0.06737043 0.077423021 5.9707674e-39
0.04249347 -0.067347832 0.077406414 6.0615169e-39
0.047459457 -0.067399457 0.077197596 5.9696828e-39
0.052493867 -0.06732069 0.076529965 5.6023408e-39
0.057285413 -0.067348808 0.076156415 6.0618854e-39
0.062375214 -0.067320652 0.075796276 6.8894965e-39
0.06723953 -0.067064881 0.075636335 6.7976624e-39
0.072370492 -0.066880316 0.075532176 6.7058241e-39
0.077875502 -0.066285096 0.07556165 5.8782172e-39
0.082926929 -0.066811375 0.075910799 4.7754542e-39
0.087469511 -0.067212842 0.076395974 4.683976e-39
0.091341071 -0.068405837 0.076385118 5.3275504e-39
0.099886082 -0.065124616 0.075071447 6.9798901e-39
0.01932759 -0.06116011 0.07587789 7.5424133e-39
0.022838816 -0.062068511 0.076765306 6.8048469e-39
0.027430061 -0.062369917 0.077329002 5.9725723e-39
0.032448601 -0.06245536 0.077464528 5.9707688e-39
0.03746653 -0.062403474 0.077461526 5.8782032e-39
0.042537756 -0.062397227 0.077388413 5.693812e-39
0.047506448 -0.062420014 0.077228501 5.4183083e-39
0.052472468 -0.062375434 0.076821513 5.6023408e-39
0.057445243 -0.062365431 0.076368906 6.0618854e-39
0.062402718 -0.06234362 0.076121889 6.4303134e-39
0.06729757 -0.062268969 0.076083578 6.7065444e-39
0.072511554 -0.062064294 0.07619901 6.0622498e-39
0.07753659 -0.062184826 0.076455258 4.8672925e-39
0.082444631 -0.062369954 0.076843686 4.8676484e-39
0.086879082 -0.062747419 0.076645367 5.6026981e-39
0.092367008 -0.061575964 0.075301118 5.9696842e-39
0.096168585 -0.061795849 0.075280033 6.3384751e-39
0.014591494 -0.055758942 0.076395981 7.0796303e-39
0.017874917 -0.056988358 0.07702706 6.7119296e-39
0.022509962 -0.057464663 0.077341065 6.0647665e-39
0.027373435 -0.057583079 0.077491887 6.1548013e-39
0.032423705 -0.0575861 0.077500097 5.9704003e-39
0.037455458 -0.057532843 0.077484079 5.6019695e-39
0.042533524 -0.057578027 0.077420451 5.0509593e-39
0.047560919 -0.057514638 0.07723923 5.3268301e-39
0.052561145 -0.057537138 0.076792382 5.6945392e-39
0.057538383 -0.057486754 0.076605089 5.9704087e-39
0.062465455 -0.057406075 0.07654538 6.0626071e-39
0.06748414 -0.057371143 0.076806523 5.8785732e-39
0.072482578 -0.057345238 0.077160276 5.0509635e-39
0.077464201 -0.057571329 0.077282391 4.7754528e-39
0.082208142 -0.057667978 0.076834954 5.4186642e-39
0.08752346 -0.0573975 0.07581912 6.0615211e-39
0.092362344 -0.057425663 0.075688027 7.1671624e-39
0.095942542 -0.058639269 0.075612411 7.3547977e-39
0.0097762588 -0.050353378 0.075208545 6.0622414e-39
0.013299875 -0.052114643 0.077120803 6.7108492e-39
0.017579213 -0.052539274 0.077341214 6.2491578e-39
0.022423679 -0.052640349 0.07755214 6.246997e-39
0.027391843 -0.052713953 0.077756099 6.338108e-39
0.032449335 -0.05268839 0.07773377 5.4182999e-39
0.03753946 -0.052634735 0.077615216 4.8672841e-39
0.042522661 -0.052657116 0.07741686 4.9594825e-39
0.047432739 -0.052726984 0.076969668 5.6974147e-39
0.052685179 -0.052604944 0.076663584 5.8807312e-39
0.057627343 -0.052524075 0.076991864 5.9711303e-39
0.062516183 -0.052517887 0.077188015 5.6945392e-39
0.067419223 -0.052548606 0.07738167 5.2349946e-39
0.072402909 -0.05257906 0.077259384 4.9591266e-39
0.077384293 -0.052631166 0.076871008 5.510141e-39
0.08253447 -0.052412894 0.076397881 6.1537167e-39
0.087463513 -0.052543342 0.076220728 6.8920132e-39
0.091597855 -0.053134263 0.076017059 7.7250221e-39
0.0087218871 -0.046698835 0.077121429 6.4328217e-39
0.012617117 -0.047598243 0.077436298 6.5257447e-39
0.017430672 -0.047718089 0.077679157 6.3391926e-39
0.022267617 -0.047832344 0.07804013 6.7058143e-39
0.027376693 -0.04774186 0.078360647 5.9700373e-39
0.032525543 -0.047735713 0.078239381 4.7754472e-39
0.037568044 -0.047657456 0.077888429 4.5917804e-39
0.042532854 -0.047608405 0.077465639 5.2364324e-39
0.047309715 -0.047479585 0.07672713 5.24184e-39
0.052778624 -0.047415383 0.076907344 4.9641685e-39
0.057584025 -0.047594722 0.077335626 5.5115843e-39
0.062431384 -0.047575369 0.077394284 5.1431591e-39
0.067391872 -0.047575071 0.077291742 5.0509621e-39
0.072405383 -0.047512464 0.077155568 5.510141e-39
0.077441551 -0.04746465 0.077093177 6.0618784e-39
0.082346238 -0.047487538 0.076806828 6.8912916e-39
0.086968616 -0.047829773 0.076344445 6.9863711e-39
0.090591215 -0.04891758 0.075439483 7.9112169e-39
0.003968141 -0.04129836 0.077023201 6.4338993e-39
0.0076534743 -0.042461388 0.077395439 6.5253831e-39
0.012463942 -0.042660549 0.077847481 6.2477172e-39
0.017270578 -0.042784445 0.078349307 7.1653561e-39
0.022310246 -0.042799395 0.078976803 6.7054486e-39
0.027521258 -0.042827241 0.079037562 4.9591182e-39
0.032555651 -0.042767249 0.078761563 4.7754486e-39
0.037695263 -0.042701155 0.078219503 5.0513194e-39
0.042603116 -0.042583562 0.077584796 5.0516824e-39
0.04758757 -0.042510714 0.077422805 5.056004e-39
0.05267518 -0.042529803 0.077443533 4.6868599e-39
0.05755965 -0.042547449 0.077371307 5.051681e-39
0.06245767 -0.042490333 0.077379413 4.8672883e-39
0.06739834 -0.042538654 0.077398151 5.3264672e-39
0.072400115 -0.042529702 0.077403463 5.8778445e-39
0.077414252 -0.042544983 0.077303931 6.7990917e-39
0.082149781 -0.042757474 0.076862298 6.7094213e-39
0.085900739 -0.043921579 0.075804688 6.6157865e-39
-0.00071954366 -0.035968494 0.076940276 6.9870773e-39
0.0027302736 -0.037259188 0.077372789 6.2484347e-39
0.0073692761 -0.037707344 0.077919871 6.1558817e-39
0.012439136 -0.037771653 0.078527868 5.9711205e-39
0.017301468 -0.037700951 0.079038553 6.6146865e-39
0.022189371 -0.037680499 0.079493232 6.7965512e-39
0.027529569 -0.037927389 0.079583116 5.3264602e-39
0.032582618 -0.037872683 0.079485759 4.8672813e-39
0.037733257 -0.037887204 0.078974515 5.326463e-39
0.042744078 -0.037734926 0.078171827 5.1431563e-39
0.047655687 -0.037613191 0.077700868 5.2364338e-39
0.052619055 -0.037527826 0.077578403 4.9602028e-39
0.057524841 -0.037449297 0.077515483 4.8672855e-39
0.062389981 -0.037495036 0.077487014 5.2346289e-39
0.067349479 -0.037456449 0.07746762 5.6938092e-39
0.072398856 -0.03750715 0.077429242 6.6143375e-39
0.077219896 -0.037607398 0.077092901 6.5235881e-39
0.081278756 -0.038405452 0.076014541 6.5253859e-39
0.085249931 -0.039016295 0.075000502 1.8812285e-38
-0.0057153865 -0.030467959 0.076078117 5.605589e-39
-0.002083194 -0.032063965 0.077303663 6.0633232e-39
0.0021812166 -0.032812703 0.077984244 5.8800123e-39
0.0074016992 -0.032971393 0.078998111 7.0746024e-39
0.012554034 -0.032847747 0.079245873 5.9721939e-39
0.017518947 -0.032648854 0.079522885 3.9489263e-39
0.022249473 -0.032827228 0.079643823 5.4182957e-39
0.027428314 -0.032469682 0.079840504 6.7958351e-39
0.03260183 -0.033099771 0.079834945 5.6938078e-39
0.038017958 -0.033076406 0.079609208 4.8672813e-39
0.042849254 -0.032869291 0.079184987 5.4182971e-39
0.047815517 -0.032689523 0.078573197 5.142792e-39
0.052710593 -0.032604933 0.078137115 4.8672841e-39
0.057599332 -0.032544844 0.077818975 5.2346261e-39
0.062465269 -0.032452714 0.077686206 5.5101354e-39
0.067353003 -0.032392256 0.077460088 6.2462711e-39
0.072315559 -0.032527018 0.077248216 6.5228678e-39
0.077207692 -0.032482415 0.0765827 6.2487948e-39
0.081126034 -0.03307686 0.075950719 5.5112158e-39
-0.010282937 -0.025541389 0.076257423 5.1453283e-39
-0.0068667601 -0.026853831 0.077248983 6.0633246e-39
-0.003036323 -0.027897831 0.078002162 5.6030639e-39
0.0015248164 -0.028967077 0.079090327 6.248076e-39
0.0077675842 -0.0292165 0.079639517 7.5327037e-39
0.012963574 -0.028631896 0.079680376 4.9605615e-39
0.017748339 -0.027638568 0.079653777 3.4897489e-39
0.022665247 -0.02756471 0.079776101 3.8570964e-39
0.027294913 -0.027323896 0.079860061 4.7754486e-39
0.032502063 -0.028217318 0.079946548 6.7962037e-39
0.037298031 -0.028035123 0.079849325 6.153351e-39
0.043033253 -0.02804563 0.07959643 4.8672813e-39
0.047798041 -0.027770173 0.079241417 5.4182957e-39
0.052689053 -0.027584618 0.078835323 5.2346247e-39
0.057590082 -0.027489601 0.0783398 5.3264616e-39
0.062490817 -0.027313661 0.077804685 5.7863719e-39
0.067329191 -0.027396133 0.077421024 6.4306708e-39
0.072214678 -0.027482407 0.076923952 6.5246643e-39
0.076417275 -0.028319314 0.076744132 5.9725597e-39
-0.011542636 -0.021733426 0.077142797 6.1555174e-39
-0.0082027512 -0.022895357 0.077952728 5.694898e-39
-0.0042443997 -0.024203138 0.079228841 4.8676526e-39
0.014483253 -0.023971133 0.079931244 5.3275518e-39
0.018274959 -0.022846879 0.079754248 3.8570908e-39
0.022213604 -0.021985885 0.079378381 4.1329687e-39
0.027110785 -0.021845264 0.079642087 3.9489375e-39
0.032570731 -0.02223379 0.079863444 4.8672827e-39
0.037921909 -0.023149967 0.079896159 6.4284917e-39
0.042619381 -0.02319148 0.079809643 5.9693157e-39
0.04806228 -0.022705432 0.079621419 4.9591168e-39
0.052881986 -0.022481188 0.079111099 5.0509537e-39
0.057765856 -0.0223547 0.078378163 5.418667e-39
0.062493298 -0.022323061 0.077520244 6.1544426e-39
0.067304552 -0.022549506 0.077241324 6.6168641e-39
0.071508609 -0.023231618 0.07678213 7.0807135e-39
-0.016334493 -0.01647168 0.07699535 6.0629588e-39
-0.013073499 -0.017968677 0.077758573 5.8789305e-39
-0.0092890235 -0.019054979 0.079278588 5.1446025e-39
0.014390707 -0.015679143 0.079843372 5.142792e-39
0.018334756 -0.016918262 0.079108372 4.31699e-39
0.022230346 -0.017383978 0.078985438 3.6734198e-39
0.027115157 -0.017355442 0.079470091 3.7652623e-39
0.032099985 -0.017207358 0.079736441 3.4897517e-39
0.037789419 -0.01702692 0.079898015 4.0407618e-39
0.042910822 -0.017511755 0.07982368 6.0611526e-39
0.048099924 -0.017471824 0.079663299 5.2346261e-39
0.053028498 -0.017435964 0.078906588 5.0513208e-39
0.057808708 -0.017449236 0.077761881 5.7867363e-39
0.062408742 -0.017504478 0.077289633 6.8934538e-39
0.06670282 -0.01814235 0.077142581 6.9878004e-39
0.070599802 -0.019719938 0.076199859 1.9917898e-38
-0.021066094 -0.011328024 0.077177204 5.6948938e-39
-0.017846959 -0.012846152 0.077666193 5.9711289e-39
-0.014322222 -0.014243712 0.078906961 5.6048603e-39
