# .PCD v0.7 - Point Cloud Data file format
VERSION 0.7
FIELDS x y z
SIZE 4 4 4
TYPE F F F
COUNT 1 1 1
WIDTH 1428
HEIGHT 1
VIEWPOINT 0 0 0 1 0 0 0
POINTS 1428
DATA ascii
-0.8751992 0.10539049 1.7589999
-0.86786777 0.10600145 1.7590001
-0.83548689 0.10691789 1.7590001
-0.82861352 0.10462679 1.7590001
-0.9147892 0.11092959 1.7500001
-0.9041521 0.11092959 1.7500001
-0.89398408 0.11466296 1.7534616
-0.88531959 0.11410172 1.757875
-0.87723583 0.11353661 1.7590002
-0.86586279 0.11486151 1.757875
-0.85076088 0.11760967 1.7590001
-0.84770608 0.11760967 1.7590001
-0.83395952 0.11455488 1.7590001
-0.82937735 0.11455488 1.7590002
-0.81563073 0.11455488 1.7590001
-0.90567172 0.12308625 1.7500001
-0.89484632 0.12392518 1.7511251
-0.88590497 0.12333477 1.7536001
-0.87859392 0.12394104 1.7536001
-0.8616038 0.12916459 1.7500001
-0.85409772 0.12549902 1.7545002
-0.84770608 0.12524667 1.7590001
-0.83395946 0.12371927 1.7590001
-0.82708621 0.12295557 1.7590001
-0.81541264 0.12502848 1.7590001
-0.90313905 0.13625598 1.7500002
-0.89503461 0.13480876 1.7500002
-0.87356132 0.13479593 1.753
-0.8655709 0.1357014 1.756
-0.8549152 0.13600934 1.7569233
-0.845415 0.13822955 1.7590001
-0.8053754 0.13593847 1.7590001
-0.79615641 0.13632031 1.7589999
-0.78966498 0.13899325 1.7590001
-0.86281949 0.14496826 1.7500002
-0.85552537 0.14436042 1.7500001
-0.84503663 0.14435211 1.7525717
-0.83521724 0.14510831 1.7538573
-0.82417405 0.14562269 1.753
-0.81634223 0.14482443 1.755625
-0.80799377 0.14510284 1.7590001
-0.79373807 0.14408457 1.7590002
-0.7886467 0.14612111 1.7590002
-0.86281949 0.15287009 1.7500002
-0.85628521 0.15195835 1.7500001
-0.84716773 0.15423772 1.7500001
-0.83425134 0.15347792 1.7500002
-0.82451528 0.15389632 1.7516365
-0.81598312 0.15565178 1.7534617
-0.80697554 0.15630376 1.7590002
-0.79424715 0.15426725 1.7590001
-0.78498286 0.15553822 1.7548463
-0.77545166 0.15793002 1.7545002
-0.85248625 0.16259542 1.7500001
-0.84640801 0.1656346 1.7500002
-0.83425128 0.16563459 1.7500001
-0.82817292 0.16867375 1.7500001
-0.81312239 0.16536778 1.7552502
-0.8063553 0.1648754 1.7580999
-0.79441738 0.16517901 1.756
-0.7851122 0.1654143 1.7509001
-0.77512592 0.16553804 1.7550627
-0.7652266 0.16648643 1.7590001
-0.86312336 0.17323251 1.7500001
-0.85400581 0.17475209 1.7500001
-0.84458447 0.17535992 1.7500002
-0.83425122 0.17475207 1.7500001
-0.82634944 0.17353643 1.7500002
-0.81497723 0.17491792 1.7538574
-0.80652595 0.17552021 1.7577144
-0.79662335 0.17550364 1.7575001
-0.78744811 0.17414427 1.7500002
-0.7737484 0.17479604 1.7527696
-0.75453484 0.17565082 1.7590001
-0.84404415 0.18353193 1.7500001
-0.83425134 0.18538916 1.7500002
-0.82422894 0.18594734 1.7524002
-0.81476235 0.18253596 1.7538573
-0.79373807 0.18277869 1.7590002
-0.78562462 0.18083042 1.7500001
-0.77495372 0.18231887 1.7533751
-0.7682814 0.1817604 1.7590001
-0.84032959 0.19298708 1.7500001
-0.83425128 0.19450669 1.7500002
-0.8232677 0.19092479 1.7590001
-0.96411395 -0.038380336 1.7680001
-0.95643795 -0.033774696 1.7680001
-0.95643795 -0.027633842 1.7680001
-0.96411407 -0.013816921 1.768
-0.95525694 -0.014289294 1.7679999
-0.94620323 -0.011769969 1.7680001
-0.96442097 -0.0052197254 1.768
-0.95375139 -0.0049894433 1.7679999
-0.9451797 -0.0040939027 1.768
-0.93340969 -0.0015352134 1.7680001
-0.9288041 -0.0015352134 1.7680001
-0.96564919 0.0076760668 1.7680001
-0.95439094 0.0052879569 1.7679999
-0.94454002 0.0046056402 1.7679999
-0.91345197 0.0046056402 1.7680001
-0.96389467 0.014694186 1.768
-0.95490277 0.014694186 1.7679999
-0.94415629 0.015352136 1.7679999
-0.93494499 0.015352136 1.7679999
-0.92641598 0.016546188 1.7679999
-0.91468018 0.018729603 1.768
-0.94377244 0.025714824 1.7679999
-0.93494493 0.026098626 1.7679999
-0.92611742 0.026482431 1.7679999
-0.91498727 0.02814558 1.768
-0.88274771 0.0230282 1.7680001
-0.94327897 0.034871276 1.768
-0.93494499 0.035309911 1.7679999
-0.92757589 0.035923999 1.768
-0.91345197 0.038380336 1.7680001
-0.90424067 0.038380336 1.7680001
-0.89195895 0.035309911 1.7680001
-0.88684154 0.036333386 1.768
-0.8796773 0.038380336 1.7680001
-0.95132059 0.04656814 1.7680001
-0.94262099 0.04452119 1.768
-0.93724781 0.043753579 1.7680001
-0.92511958 0.045749359 1.768
-0.91345197 0.04452119 1.7679999
-0.90424061 0.044521187 1.7679999
-0.89502949 0.04452119 1.7679999
-0.88543427 0.04452119 1.7679999
-0.87626576 0.045203507 1.7679999
-0.95336759 0.052197259 1.768
-0.94381511 0.054414786 1.7679999
-0.93433088 0.055881768 1.7679999
-0.92726886 0.054755941 1.768
-0.91257465 0.054609735 1.768
-0.90424073 0.055267677 1.7679999
-0.89502943 0.055267684 1.7679999
-0.88643217 0.055574723 1.768
-0.87387758 0.055438261 1.7679999
-0.86739558 0.05373247 1.7680001
-0.93571258 0.06371136 1.7680001
-0.92266321 0.067549393 1.7680001
-0.91498727 0.067549393 1.768
-0.90336347 0.066014186 1.768
-0.89502937 0.066014171 1.7679999
-0.87123358 0.066014178 1.7680001
-0.86509275 0.066781782 1.7680001
-0.85511386 0.0690846 1.7680001
-0.91652238 0.072155029 1.7680001
-0.9037289 0.074201986 1.768
-0.89502949 0.075225458 1.7679999
-0.88581806 0.075225458 1.7679999
-0.8796773 0.072155029 1.7680001
-0.86227816 0.075225458 1.7680001
-0.85511392 0.076102726 1.768
-0.84897298 0.076760665 1.7680001
-0.90500826 0.085204341 1.7680001
-0.89349419 0.082901523 1.7680001
-0.88581806 0.084436737 1.7679999
-0.87572968 0.085314013 1.768
-0.85423672 0.083998114 1.768
-0.84590256 0.085971951 1.768
-0.83976173 0.085971951 1.7680001
-0.87108004 0.096104361 1.768
-0.86432511 0.09710224 1.7679999
-0.85483485 0.095601931 1.7679999
-0.84590256 0.095322795 1.7679999
-0.83707511 0.097102247 1.7679999
-0.79984617 0.090577587 1.7680001
-0.7660715 0.099788867 1.7680001
-0.87046599 0.1028593 1.7680001
-0.86432511 0.10592972 1.7679999
-0.85511392 0.10592972 1.7679999
-0.84677976 0.10549109 1.768
-0.83438849 0.10516211 1.7680001
-0.82484823 0.106807 1.768
-0.81596589 0.10823254 1.7680001
-0.805987 0.10900015 1.7680001
-0.7916584 0.1069532 1.7680001
-0.78493273 0.10505246 1.768
-0.7752828 0.10439452 1.768
-0.7660715 0.10362691 1.7680001
-0.88581818 0.115141 1.7680001
-0.87783498 0.1157551 1.768
-0.86344784 0.11470238 1.768
-0.85555249 0.11426374 1.768
-0.8459025 0.115141 1.7679999
-0.83055043 0.115141 1.7680001
-0.82479334 0.115141 1.7679999
-0.81481457 0.115141 1.7679999
-0.80660105 0.115141 1.768
-0.79458261 0.11689554 1.768
-0.78449404 0.11667623 1.768
-0.77589685 0.11636918 1.768
-0.87660682 0.12128185 1.7680001
-0.86125469 0.12128185 1.7680001
-0.85511386 0.12128185 1.7680001
-0.8459025 0.12435227 1.7679999
-0.83537543 0.12479091 1.768
-0.82492131 0.12486403 1.768
-0.81366313 0.12435228 1.768
-0.805987 0.12435228 1.7679999
-0.79524052 0.12435228 1.7679999
-0.7857222 0.12373819 1.768
-0.75225461 0.12435228 1.7680001
-0.7430433 0.12588748 1.7680001
-0.73843765 0.12742271 1.7680001
-0.85204345 0.13202834 1.7680001
-0.84559548 0.13417765 1.7679999
-0.83527416 0.1347445 1.7679999
-0.82468867 0.13551749 1.7679999
-0.81596589 0.13509879 1.7679999
-0.80660117 0.13294949 1.768
-0.7937054 0.13356356 1.7679999
-0.78449404 0.13601992 1.7679999
-0.75532496 0.1381692 1.7680001
-0.74381089 0.13126074 1.7680001
-0.73843765 0.13049313 1.7680001
-0.83515608 0.14277485 1.7680001
-0.82287437 0.14277485 1.7680001
-0.81519824 0.14661287 1.7680001
-0.80598706 0.14584525 1.7679999
-0.79524058 0.14584528 1.768
-0.78449404 0.14584526 1.7679999
-0.7752828 0.14738049 1.768
-0.76607144 0.14622906 1.7679999
-0.75583678 0.14618643 1.7679999
-0.74396437 0.14400302 1.768
-0.8151983 0.15352133 1.7680001
-0.80560327 0.15467276 1.7679999
-0.78295887 0.15352133 1.7680001
-0.77440554 0.15461794 1.768
-0.76607144 0.15505655 1.7679999
-0.75624615 0.1553636 1.7679999
-0.74764889 0.15505655 1.7680001
-0.8041448 0.16365376 1.768
-0.79984617 0.16426784 1.7680001
-0.77221239 0.16426784 1.7680001
-0.76519424 0.16470647 1.768
-0.75532502 0.16426784 1.7679999
-0.74457848 0.16426784 1.7679999
-0.73843765 0.16273263 1.7680001
-0.80598706 0.17470728 1.768
-0.77221239 0.17654955 1.7680001
-0.76576442 0.17593546 1.7679999
-0.75471097 0.17286503 1.7679999
-0.74519259 0.17286502 1.768
-0.73843765 0.17961997 1.7680001
-0.72922635 0.17961997 1.7680001
-0.8151983 0.18473735 1.7680001
-0.80521941 0.183458 1.7680001
-0.79984617 0.18576083 1.7680001
-0.76914191 0.1826904 1.7680001
-0.9582206 -0.075608388 1.7770001
-0.97056484 -0.050919935 1.7770001
-0.96593577 -0.050919935 1.7770001
-0.95667756 -0.054005992 1.7770001
-0.97056484 -0.044747826 1.7770002
-0.96439278 -0.044747826 1.7770002
-0.95616329 -0.042690452 1.7770002
-0.97056484 -0.033946626 1.7770001
-0.96490711 -0.035489652 1.7770002
-0.95513445 -0.035103891 1.7770002
-0.9474194 -0.032403596 1.7770001
-0.97056484 -0.024688452 1.7770001
-0.96507859 -0.024517009 1.7770002
-0.95513451 -0.024688456 1.7770003
-0.94793385 -0.024688452 1.7770002
-0.93353218 -0.02005937 1.7770001
-0.92427397 -0.02005937 1.7770002
-0.95204848 -0.016973313 1.7770001
-0.94587642 -0.013887257 1.7770002
-0.93558961 -0.013201465 1.7770002
-0.92427403 -0.013887256 1.7770002
-0.91604447 -0.013372912 1.7770002
-0.90472901 -0.011829885 1.7770002
-0.94484776 -0.0051434282 1.7770002
-0.93456089 -0.0056577711 1.7770002
-0.92427403 -0.0046290853 1.7770002
-0.91540152 -0.0042433282 1.7770002
-0.9053719 -0.0042433282 1.7770002
-0.8872413 -0.0077151419 1.7770001
-0.94356185 0.0046290853 1.7770001
-0.93507516 0.0046290858 1.7770003
-0.92427403 0.0046290853 1.7770002
-0.91463006 0.0046290853 1.7770002
-0.90575761 0.0046290853 1.7770002
-0.89835113 0.0052462965 1.7770001
-0.93044609 0.010801199 1.7770001
-0.92383313 0.013005526 1.7770002
-0.91463006 0.013501499 1.7770002
-0.90575778 0.013887256 1.7770002
-0.89615661 0.014573048 1.7770002
-0.8872413 0.015430285 1.7770001
-0.92427397 0.023145428 1.7770001
-0.91369325 0.024468023 1.7770002
-0.90575778 0.024688456 1.7770003
-0.89495653 0.024688456 1.7770003
-0.88518399 0.026231483 1.7770002
-0.87489712 0.029317539 1.7770002
-0.86563891 0.026231483 1.7770001
-0.85869527 0.027002998 1.7770001
-0.92427403 0.035489652 1.7770002
-0.91463006 0.035103895 1.7770002
-0.9053719 0.035103895 1.7770002
-0.89727098 0.034718137 1.7770001
-0.88371444 0.034607925 1.7770002
-0.87528282 0.035489652 1.7770002
-0.86625618 0.036106862 1.7770001
-0.85682172 0.035489649 1.7770002
-0.92530268 0.042690452 1.7770002
-0.87386841 0.043719139 1.7770002
-0.86652064 0.04430696 1.7770002
-0.85368043 0.044747826 1.7770002
-0.84712261 0.044747822 1.7770002
-0.83477831 0.047833882 1.7770002
-0.8193481 0.047833879 1.7770001
-0.94279033 0.052462965 1.7770001
-0.9263314 0.051948622 1.7770002
-0.87798315 0.057092048 1.7770001
-0.868725 0.054005992 1.7770002
-0.85368055 0.054005995 1.7770002
-0.84712261 0.050919935 1.7770001
-0.91192979 0.069436274 1.7770001
-0.87335408 0.060178109 1.7770001
-0.86519802 0.06546849 1.7770002
-0.85471904 0.064688489 1.7770003
-0.84300786 0.064635739 1.7770002
-0.83516407 0.065192953 1.7770002
-0.80391777 0.066350222 1.7770001
-0.79620266 0.066350222 1.7770002
-0.86409593 0.072522335 1.7770001
-0.85206026 0.074373975 1.7770001
-0.84365082 0.075994149 1.7770002
-0.83477837 0.075994141 1.7770002
-0.82675457 0.074991181 1.7770001
-0.81008989 0.078694448 1.7770001
-0.80430359 0.075994141 1.7770002
-0.79554141 0.076049253 1.7770002
-0.78694451 0.078694448 1.7770001
-0.85175169 0.081780501 1.7770001
-0.84280217 0.083632134 1.7770001
-0.83477831 0.084866561 1.7770002
-0.8255201 0.084866561 1.7770002
-0.81457883 0.084866561 1.7770003
-0.80391783 0.084866561 1.7770002
-0.79465961 0.084866561 1.7770002
-0.78663588 0.084249347 1.7770001
-0.76534206 0.087952621 1.7770001
-0.75454092 0.086409591 1.7770002
-0.74528277 0.086409591 1.7770002
-0.85020864 0.094124734 1.7770001
-0.84095049 0.092581704 1.7770001
-0.83516407 0.094510496 1.7770002
-0.82552016 0.095667765 1.7770002
-0.81410187 0.094741933 1.7770003
-0.80391783 0.094510481 1.7770002
-0.79465961 0.094124727 1.7770002
-0.78578717 0.094510488 1.7770002
-0.77614325 0.095667757 1.7770001
-0.76448482 0.094467625 1.7770002
-0.75454092 0.094124727 1.7770002
-0.74528265 0.094510496 1.7770002
-0.73641026 0.094510488 1.7770002
-0.83169228 0.10029685 1.7770001
-0.82552016 0.10183989 1.7770002
-0.81460047 0.10385769 1.7770003
-0.80391783 0.10492592 1.7770003
-0.79568833 0.10286856 1.7770002
-0.78540146 0.10492593 1.7770002
-0.77570236 0.10514637 1.7770002
-0.76441634 0.10646895 1.7770003
-0.75454086 0.10492592 1.7770003
-0.74528265 0.10492592 1.7770003
-0.73633307 0.10461732 1.7770003
-0.81163293 0.11727016 1.7770001
-0.80453503 0.11387549 1.7770001
-0.79465961 0.11264107 1.7770002
-0.78540146 0.11264107 1.7770002
-0.77511466 0.11521278 1.7770002
-0.76534212 0.11572712 1.7770003
-0.75454092 0.11572712 1.7770002
-0.74566847 0.11534137 1.7770002
-0.73679602 0.11341258 1.7770001
-0.79157358 0.12807135 1.7770001
-0.78385842 0.1249853 1.7770002
-0.77614319 0.1249853 1.7770002
-0.76534212 0.12498528 1.7770003
-0.75410008 0.1249853 1.7770002
-0.74451125 0.12267075 1.7770001
-0.73705328 0.12601398 1.7770002
-0.72985244 0.12807135 1.7770001
-0.84095049 0.13424347 1.7770001
-0.8378644 0.13732952 1.7770001
-0.79157358 0.13115741 1.7770001
-0.7830869 0.13347195 1.7770001
-0.77614331 0.13424349 1.7770002
-0.76576298 0.13396291 1.7770003
-0.75454098 0.13424347 1.7770002
-0.74528265 0.13609511 1.7770001
-0.73705328 0.13372913 1.7770002
-0.72985244 0.13424347 1.7770002
-0.8378644 0.14041558 1.7770001
-0.78231537 0.14195861 1.7770001
-0.77676052 0.14165001 1.7770001
-0.7668851 0.14165001 1.7770001
-0.75299788 0.14504467 1.7770002
-0.74451119 0.14504465 1.7770002
-0.73808193 0.14555901 1.7770002
-0.72985244 0.14195861 1.7770001
-0.75351226 0.15481719 1.7770002
-0.74528271 0.15584585 1.7770002
-0.7360245 0.15584587 1.7770002
-0.72800082 0.15708029 1.7770001
-0.74219668 0.16819009 1.7770001
-0.7360245 0.16510405 1.7770002
-0.72676641 0.16510405 1.7770002
-0.71133608 0.16819009 1.7770001
-0.74528271 0.17480306 1.7770002
-0.73602444 0.17397645 1.7770002
-0.72676635 0.17281918 1.7770002
-0.71133608 0.17127615 1.7770001
-0.81379318 0.18794085 1.7770001
-0.73756754 0.18053432 1.7770001
-0.97237879 -0.12251662 1.7860001
-0.97392964 -0.10235566 1.7860001
-0.97392964 -0.094601445 1.7860001
-0.97361946 -0.085296385 1.7860001
-0.96617544 -0.08297012 1.7860001
-0.95997202 -0.082194701 1.7860001
-0.97237885 -0.075991325 1.7860001
-0.9666186 -0.076434426 1.7860003
-0.95593989 -0.07537099 1.7860001
-0.97444665 -0.062550686 1.7860001
-0.96586525 -0.06606593 1.7860001
-0.95602453 -0.066404298 1.786
-0.94415343 -0.064825259 1.7860001
-0.97392964 -0.055830359 1.7860001
-0.9661755 -0.054279517 1.7860001
-0.95489663 -0.054279517 1.786
-0.94446361 -0.054279521 1.7860001
-0.93826026 -0.052728675 1.7860001
-0.96307373 -0.048076145 1.7860001
-0.95517856 -0.045256436 1.786
-0.94446355 -0.044974457 1.7860001
-0.93515855 -0.04574988 1.7860001
-0.95376867 -0.037530411 1.7860001
-0.94485134 -0.035669398 1.7860001
-0.93560171 -0.034783203 1.7860003
-0.9279213 -0.033601608 1.7860001
-0.91965014 -0.03256771 1.7860001
-0.95066696 -0.024813494 1.7860001
-0.94446373 -0.024813496 1.786
-0.93515867 -0.025743997 1.7860001
-0.92624122 -0.025201205 1.7860001
-0.91861624 -0.02119486 1.7860001
-0.89380276 -0.022228755 1.7860001
-0.88449776 -0.023779599 1.7860001
-0.94601446 -0.017059278 1.7860001
-0.93515855 -0.015508434 1.7860001
-0.91477603 -0.014843788 1.7860003
-0.90414166 -0.013440643 1.7860001
-0.89572275 -0.013514494 1.7860003
-0.88656545 -0.0118898 1.7860001
-0.91499758 -0.0077542169 1.7860001
-0.90414166 -0.00465253 1.7860001
-0.89572275 -0.0042094323 1.7860003
-0.88656545 -0.0051694782 1.7860001
-0.90104002 0.0015508434 1.7860001
-0.89483666 0.0046525304 1.7860001
-0.88863325 0.00465253 1.7860001
-0.8948366 0.011631325 1.7860001
-0.88759935 0.016025383 1.7860001
-0.88514388 0.023262652 1.7860001
-0.87519264 0.02636434 1.7860001
-0.86381972 0.02791518 1.7860001
-0.85637569 0.026984675 1.7860001
-0.80488771 0.029466024 1.7860001
-0.87312478 0.035669398 1.7860001
-0.86692142 0.034118555 1.7860001
-0.85362846 0.035669401 1.7860003
-0.82349783 0.038771085 1.7860001
-0.81729448 0.038771085 1.7860001
-0.80385387 0.033601608 1.7860001
-0.86330289 0.045491409 1.7860001
-0.84559733 0.044586744 1.7860001
-0.8359046 0.04445751 1.7860001
-0.82453173 0.045319092 1.7860001
-0.81729448 0.044974457 1.7860001
-0.80488771 0.0465253 1.7860001
-0.79713351 0.0465253 1.7860001
-0.87002313 0.054279517 1.7860001
-0.86381978 0.054279521 1.7860003
-0.85141301 0.055830359 1.7860001
-0.8452096 0.054279521 1.7860001
-0.8359046 0.054279517 1.7860001
-0.82504869 0.054279517 1.786
-0.81419277 0.056347311 1.7860001
-0.80488771 0.055830359 1.7860001
-0.79558265 0.055830363 1.7860001
-0.87157398 0.060482893 1.7860001
-0.86381972 0.060482893 1.7860001
-0.85218841 0.065910846 1.7860001
-0.83551687 0.064747714 1.7860001
-0.82504863 0.065135434 1.7859998
-0.81391084 0.064994439 1.786
-0.80533087 0.064027682 1.7860003
-0.79441953 0.065135427 1.7860001
-0.7886039 0.067461684 1.7860001
-0.85141301 0.072889641 1.7860001
-0.8359046 0.075991325 1.7860001
-0.82349783 0.075991325 1.7860001
-0.81605381 0.07537099 1.7860001
-0.80488771 0.072889641 1.7860001
-0.7940318 0.074440487 1.7860001
-0.78489906 0.076335952 1.7860001
-0.77464628 0.07831759 1.7860001
-0.76379037 0.07831759 1.7860001
-0.75629461 0.078059122 1.7860001
-0.74905735 0.079093009 1.7860001
-0.73975229 0.079093009 1.7860001
-0.82039613 0.085296385 1.7860001
-0.79248095 0.088398069 1.7860001
-0.78317589 0.085296392 1.7860001
-0.77431399 0.084410198 1.7860003
-0.76518613 0.083435372 1.7860001
-0.75526071 0.082194701 1.7860001
-0.74471509 0.084055714 1.7860001
-0.73851156 0.08591672 1.7860001
-0.83435374 0.091499761 1.7860001
-0.82504869 0.091499761 1.7860001
-0.78317589 0.093050599 1.7860001
-0.77387089 0.093360774 1.7860001
-0.74905735 0.091499761 1.7860001
-0.73292857 0.095221788 1.7860001
-0.76611662 0.10080482 1.7860001
-0.73354894 0.10468193 1.7860001
-0.74440479 0.11941494 1.7860001
-0.73492748 0.11493472 1.7860001
-0.73458284 0.12510137 1.7860001
-0.73406589 0.13544032 1.7860001
-0.72734553 0.13492337 1.7860001
-0.73548746 0.14422844 1.7860001
-0.73230827 0.15229283 1.7860001
-0.72380084 0.1566352 1.7860003
-0.71555918 0.15787587 1.7860001
-0.70459986 0.15870297 1.7860001
-0.69943035 0.15508434 1.7860001
-0.72269309 0.16594024 1.7860001
-0.71538192 0.16594024 1.7860003
-0.70873541 0.16594024 1.7860001
-0.73458284 0.17834699 1.7860001
-0.72362351 0.17462496 1.7860001
-0.71804047 0.17369446 1.7860001
-0.73199809 0.18144867 1.7860001
-0.98039609 -0.22600546 1.7950001
-0.98039609 -0.21821217 1.7950001
-0.98039609 -0.19171499 1.7950001
-0.98039615 -0.18548036 1.7950001
-0.97727883 -0.18392169 1.7950001
-0.98039609 -0.15274853 1.7950001
-0.97104418 -0.15118986 1.7950001
-0.96792686 -0.15274853 1.7950001
-0.98039609 -0.14807254 1.7950001
-0.96792686 -0.14807254 1.7950001
-0.98039615 -0.13560328 1.7950001
-0.97572017 -0.13404462 1.7950001
-0.98039609 -0.12469266 1.7950001
-0.97450787 -0.12417311 1.7950001
-0.96480954 -0.12001669 1.7950001
-0.98039609 -0.11534072 1.7950001
-0.97460687 -0.11467273 1.7950002
-0.9648096 -0.11586028 1.7950001
-0.93051904 -0.11534072 1.7950001
-0.97520065 -0.1044301 1.7950001
-0.97291464 -0.094454698 1.7950001
-0.96558893 -0.092740178 1.7950001
-0.94922298 -0.091960847 1.7950001
-0.98039609 -0.085726209 1.7950001
-0.97312248 -0.087804422 1.7950001
-0.96436429 -0.086616866 1.7950002
-0.95545751 -0.085336544 1.7950001
-0.94649529 -0.085336536 1.7950001
-0.93831235 -0.082608894 1.7950001
-0.98039609 -0.074815601 1.7950001
-0.97416151 -0.071698286 1.7950001
-0.95421058 -0.077621184 1.7950001
-0.94610566 -0.07533516 1.7950001
-0.93502182 -0.072217844 1.7950001
-0.9242844 -0.073256947 1.7950001
-0.98039609 -0.067022309 1.7950001
-0.97494078 -0.062346336 1.7950001
-0.96169221 -0.060787678 1.7950001
-0.95670444 -0.063905001 1.7950001
-0.944547 -0.064684317 1.7950001
-0.93613023 -0.063593261 1.7950001
-0.97104418 -0.057670359 1.7950001
-0.94298834 -0.057670359 1.7950001
-0.93675369 -0.054553043 1.7950001
-0.9242844 -0.051435728 1.7950001
-0.94298834 -0.045201093 1.7950001
-0.93536812 -0.044508357 1.7950001
-0.92324531 -0.044161987 1.7950001
-0.91649115 -0.045201093 1.7950001
-0.88375932 -0.042083777 1.7950001
-0.94610566 -0.035849143 1.7950001
-0.93425983 -0.038342994 1.7950001
-0.92383915 -0.035849147 1.7950002
-0.91597164 -0.034810036 1.7950001
-0.9024632 -0.038966458 1.7950001
-0.89498156 -0.037096072 1.7950001
-0.88531798 -0.035849143 1.7950001
-0.87752467 -0.032731827 1.7950001
-0.92383909 -0.027387854 1.7950002
-0.91555595 -0.02431507 1.7950001
-0.90558052 -0.02431507 1.7950001
-0.89622861 -0.026942523 1.7950002
-0.88479841 -0.024938535 1.7950001
-0.87648559 -0.02441898 1.7950001
-0.90713918 -0.017145243 1.7950001
-0.89518946 -0.016106136 1.7950001
-0.88517636 -0.014311318 1.7950001
-0.87648559 -0.016106136 1.7950001
-0.90558052 -0.0046759755 1.7950001
-0.89622855 -0.0046759751 1.7950001
-0.88410568 -0.0043296064 1.7950001
-0.87674534 -0.0046759751 1.7950001
-0.86817271 -0.0046759751 1.7950001
-0.88531798 0.004675976 1.7950001
-0.87518668 0.003896646 1.7950001
-0.89311123 0.010910609 1.7950001
-0.88489294 0.013744533 1.7950001
-0.87440735 0.011689938 1.7950001
-0.86817276 0.014027926 1.7950001
-0.81517833 0.017145243 1.7950001
-0.88168114 0.021301663 1.7950001
-0.87316048 0.022756413 1.7950001
-0.86505538 0.021041885 1.7950001
-0.85518396 0.026497193 1.7950001
-0.84842968 0.028575404 1.7950001
-0.8245303 0.029614512 1.7950001
-0.81393141 0.02774412 1.7950001
-0.80582637 0.028575404 1.7950001
-0.79959172 0.02805585 1.7950001
-0.86505538 0.035849143 1.7950001
-0.85258615 0.035849147 1.7950001
-0.84479284 0.035849143 1.7950001
-0.83343691 0.036739808 1.7950002
-0.8245303 0.034958482 1.7950002
-0.81517828 0.035849143 1.7950001
-0.80478728 0.036888249 1.7950001
-0.79834485 0.035225678 1.7950001
-0.83388221 0.042083781 1.7950001
-0.81606901 0.044755764 1.7950002
-0.80582637 0.042083781 1.7950001
-0.79959172 0.042083777 1.7950001
-0.82141298 0.054553043 1.7950001
-0.8158018 0.052682657 1.7950001
-0.80582637 0.051435731 1.7950001
-0.79530537 0.054942708 1.7950001
-0.82141298 0.067022309 1.7950001
-0.79273367 0.062658072 1.7950001
-0.78400517 0.072010018 1.7950001
-0.77504283 0.073646612 1.7950001
-0.76530129 0.074503869 1.7950001
-0.75594932 0.074592933 1.7950002
-0.74570674 0.077264927 1.7950002
-0.73724544 0.079491578 1.7950001
-0.7403627 0.082608894 1.7950001
-0.73516726 0.085726216 1.7950001
-0.73334885 0.09429884 1.7950001
-0.72789347 0.096636817 1.7950001
-0.73101079 0.1044301 1.7950001
-0.72789353 0.1044301 1.7950001
-0.73179018 0.11456139 1.7950001
-0.72664654 0.11440553 1.7950001
-0.73368287 0.12357935 1.7950002
-0.72438645 0.12664099 1.7950001
-0.73101079 0.13560328 1.7950001
-0.72477609 0.13560329 1.7950001
-0.71698284 0.13560328 1.7950001
-0.73179018 0.14573455 1.7950001
-0.72477609 0.14495523 1.7950001
-0.71631491 0.14540057 1.7950002
-0.73101079 0.15118986 1.7950001
-0.72477621 0.15243679 1.7950001
-0.71542424 0.15378764 1.7950001
-0.70607227 0.15430719 1.7950001
-0.69983763 0.15430719 1.7950001
-0.71386552 0.16210046 1.7950001
-0.70763087 0.16365913 1.7950001
-0.72789347 0.17924571 1.7950001
-0.73101079 0.18236303 1.7950001
-0.98322314 -0.23236023 1.8040003
-0.97591299 -0.23183808 1.8040001
-0.98322314 -0.2240057 1.8040003
-0.97669613 -0.22322246 1.8040001
-0.98374528 -0.21304038 1.8040001
-0.97800159 -0.21251822 1.8040003
-0.98374528 -0.20520803 1.8040001
-0.97630453 -0.2048164 1.804
-0.96964705 -0.20520802 1.8040001
-0.98343199 -0.19643578 1.8040001
-0.97636056 -0.19536163 1.8040001
-0.98322314 -0.1832774 1.8040003
-0.97626102 -0.18606222 1.804
-0.98374528 -0.17387855 1.8040001
-0.97904587 -0.17231208 1.8040001
-0.98374528 -0.16447972 1.8040001
-0.97636056 -0.16358459 1.8040001
-0.96964705 -0.16134676 1.8040001
-0.98296207 -0.15586409 1.8040001
-0.97695726 -0.15612519 1.8040001
-0.9655742 -0.15445428 1.8040001
-0.95711523 -0.15194792 1.8040001
-0.94301701 -0.15194792 1.8040001
-0.93675107 -0.15194792 1.8040001
-0.98343199 -0.14505546 1.8040001
-0.97630465 -0.1452904 1.804
-0.96494764 -0.14568202 1.8040003
-0.95460892 -0.14380227 1.8040001
-0.94419181 -0.1452904 1.804
-0.93607974 -0.14568204 1.8040001
-0.98217881 -0.13941613 1.8040001
-0.97486866 -0.13523886 1.804
-0.96526086 -0.13482113 1.8040005
-0.95554876 -0.13941613 1.8040001
-0.94458342 -0.13863289 1.8040001
-0.93518466 -0.13158377 1.8040001
-0.92891872 -0.1300173 1.8040001
-0.97356325 -0.12453463 1.8040001
-0.96494752 -0.1237514 1.8040001
-0.95359069 -0.12335978 1.804
-0.94458336 -0.1237514 1.804
-0.9351846 -0.12375139 1.804
-0.92766553 -0.12312482 1.8040001
-0.98531175 -0.11121961 1.8040001
-0.97512972 -0.11200284 1.8040001
-0.96432096 -0.11403926 1.8040001
-0.95442986 -0.11524767 1.8040001
-0.94458348 -0.11435255 1.804
-0.93518466 -0.11390498 1.8040001
-0.92617738 -0.11396093 1.804
-0.91764015 -0.11309937 1.8040001
-0.98531175 -0.10808666 1.8040001
-0.97501785 -0.10540127 1.8040001
-0.96494746 -0.10495371 1.8040003
-0.95442992 -0.10405859 1.8040001
-0.94458348 -0.10495371 1.804
-0.9351846 -0.10495371 1.804
-0.92668092 -0.10540127 1.8040001
-0.91847557 -0.10704234 1.8040003
-0.97434646 -0.09868782 1.8040001
-0.96432096 -0.096181475 1.8040001
-0.95398229 -0.095946498 1.804
-0.94458336 -0.095554881 1.804
-0.9351846 -0.095554873 1.804
-0.92813551 -0.094771631 1.8040001
-0.96024817 -0.08928898 1.8040001
-0.94301701 -0.08772251 1.8040001
-0.9351846 -0.086156026 1.804
-0.9261775 -0.085764408 1.804
-0.91603881 -0.08580792 1.804
-0.90620482 -0.086156033 1.8040001
-0.94395685 -0.078636967 1.8040001
-0.93384188 -0.076757193 1.8040001
-0.92550105 -0.075333133 1.8040003
-0.91673493 -0.075364776 1.804
-0.90698808 -0.079890139 1.8040001
-0.93330479 -0.064851992 1.8040001
-0.92578584 -0.064225405 1.804
-0.9169091 -0.064747564 1.8040001
-0.93361807 -0.054826569 1.8040001
-0.92539412 -0.055218186 1.804
-0.91576046 -0.054513272 1.8040001
-0.90463841 -0.052476857 1.8040001
-0.89382976 -0.052946802 1.8040001
-0.88466585 -0.054434951 1.804
-0.87644184 -0.052476857 1.8040001
-0.93283486 -0.046210963 1.8040001
-0.92515916 -0.046054319 1.8040001
-0.91439319 -0.045427728 1.8040003
-0.90385514 -0.045427728 1.804
-0.89484799 -0.04581935 1.804
-0.88505745 -0.045819346 1.804
-0.87476355 -0.044980172 1.8040001
-0.86625981 -0.042294782 1.8040001
-0.93205166 -0.039161835 1.8040001
-0.92265284 -0.037595361 1.8040001
-0.91388053 -0.036028888 1.8040001
-0.9038552 -0.034462415 1.8040001
-0.88192451 -0.037595361 1.8040001
-0.87565863 -0.036028888 1.804
-0.86670744 -0.036028888 1.8040001
-0.91325396 -0.028196521 1.8040001
-0.87531054 -0.024889523 1.804
-0.86813956 -0.022870511 1.8040001
-0.85294473 -0.021147391 1.8040001
-0.84432912 -0.020364154 1.8040003
-0.88192451 -0.010965314 1.8040001
-0.87526703 -0.013706643 1.804
-0.86665136 -0.013706643 1.804
-0.853728 -0.012755571 1.8040001
-0.87565863 -0.0046994202 1.8040001
-0.86625975 -0.0046994202 1.804
-0.85529459 -0.0046994202 1.8040003
-0.82396501 -0.0015664734 1.8040001
-0.8192656 -0.0015664734 1.8040001
-0.88192451 0.0062658936 1.8040001
-0.87409222 0.0046994202 1.8040001
-0.86625981 0.0046994202 1.804
-0.85775614 0.005146984 1.8040001
-0.82513988 0.0046994202 1.804
-0.8192656 0.0046994202 1.8040003
-0.80986673 0.007832367 1.8040001
-0.88192451 0.015664734 1.8040001
-0.87670296 0.016186893 1.8040003
-0.86625975 0.014098261 1.804
-0.85686094 0.014098261 1.804
-0.84511238 0.013315024 1.8040001
-0.8349303 0.014098261 1.804
-0.82553148 0.014098261 1.804
-0.81613266 0.01409826 1.8040001
-0.80798692 0.015351439 1.8040001
-0.88192451 0.020364154 1.8040001
-0.86312681 0.020364154 1.8040001
-0.8541196 0.022322245 1.804
-0.84432912 0.025063578 1.8040003
-0.83521515 0.024636352 1.8040003
-0.82553148 0.023497099 1.804
-0.81665486 0.022452787 1.8040001
-0.80490625 0.02375818 1.8040003
-0.79459369 0.027021667 1.804
-0.78480315 0.029762994 1.8040003
-0.77853727 0.029762994 1.8040001
-0.84119618 0.032895941 1.8040001
-0.83806324 0.032895941 1.8040001
-0.80046791 0.039161835 1.8040001
-0.79420209 0.036028888 1.804
-0.78480315 0.036028888 1.804
-0.77603096 0.036655478 1.8040001
-0.76678872 0.0383786 1.8040001
-0.75973958 0.037595361 1.8040001
-0.80046791 0.045427732 1.8040003
-0.79420209 0.045427732 1.804
-0.78480315 0.045036115 1.804
-0.77603096 0.044801138 1.8040001
-0.76913846 0.043861255 1.8040001
-0.7534737 0.046994202 1.8040001
-0.74720782 0.048560675 1.8040001
-0.79294884 0.053573389 1.8040001
-0.78525072 0.05527414 1.8040001
-0.77853727 0.054826569 1.8040003
-0.7641257 0.054199982 1.8040001
-0.75302619 0.054826573 1.8040001
-0.74720782 0.054826569 1.8040003
-0.79106903 0.064225405 1.8040003
-0.78480321 0.064225405 1.804
-0.77585191 0.065120541 1.8040001
-0.76600552 0.064225413 1.804
-0.75518262 0.064510226 1.8040003
-0.74642456 0.06500864 1.8040001
-0.78793609 0.070491299 1.8040001
-0.77383786 0.070491299 1.8040001
-0.76757193 0.070491299 1.8040001
-0.75399584 0.071535617 1.8040001
-0.74317986 0.073176697 1.8040001
-0.73439121 0.075617947 1.8040003
-0.72762692 0.077540427 1.8040001
-0.73363173 0.086156033 1.8040001
-0.72617233 0.086603597 1.8040001
-0.73310953 0.092421927 1.8040001
-0.72527725 0.095554873 1.804
-0.70804596 0.09868782 1.8040001
-0.72527725 0.10495371 1.804
-0.71822804 0.10417047 1.8040001
-0.70882916 0.10495371 1.8040001
-0.7243821 0.11390499 1.8040001
-0.71901131 0.11435255 1.8040003
-0.70961243 0.11121961 1.8040001
-0.73258734 0.12166276 1.8040003
-0.724024 0.12249821 1.8040001
-0.71901131 0.12375139 1.8040003
-0.72214431 0.13523889 1.8040003
-0.71556503 0.1347167 1.8040001
-0.70804596 0.13628319 1.8040001
-0.71399856 0.14505544 1.8040001
-0.70647949 0.14568202 1.804
-0.71431184 0.15194792 1.8040001
-0.70961243 0.15194792 1.8040001
-0.97344685 -0.2331232 1.8140001
-0.96557105 -0.23233561 1.8140001
-0.95690775 -0.23391078 1.8140001
-0.98368537 -0.22682257 1.8140001
-0.97502196 -0.22445983 1.8140001
-0.96467102 -0.22524743 1.8140002
-0.95927042 -0.22524743 1.8140001
-0.92146665 -0.22839773 1.8140001
-0.91471601 -0.2261475 1.8140002
-0.90571517 -0.2239873 1.8140001
-0.98368537 -0.2181592 1.8140001
-0.97502202 -0.21390629 1.8140001
-0.9651773 -0.21540269 1.8140001
-0.95927042 -0.21579647 1.8140001
-0.9743219 -0.20459536 1.814
-0.9662711 -0.20599551 1.814
-0.95657021 -0.20499541 1.8140002
-0.94981951 -0.20319521 1.8140001
-0.93091762 -0.20162006 1.8140001
-0.92356694 -0.20372027 1.8140001
-0.91674119 -0.20477039 1.8140001
-0.98132265 -0.19689459 1.8140001
-0.97344685 -0.19374427 1.8140001
-0.96557111 -0.19374429 1.814
-0.95612001 -0.19216913 1.8140001
-0.94194371 -0.19059396 1.8140001
-0.93217772 -0.19437434 1.8140001
-0.92501074 -0.19413806 1.8140001
-0.91726631 -0.1958445 1.8140001
-0.98132265 -0.18271817 1.8140001
-0.97412205 -0.18384328 1.8140002
-0.96557111 -0.18429331 1.814
-0.95612007 -0.18429334 1.814
-0.94391274 -0.18389952 1.8140001
-0.93249273 -0.18744364 1.8140001
-0.92461699 -0.18744364 1.8140001
-0.9821102 -0.17562997 1.8140001
-0.97502202 -0.17484242 1.814
-0.96517724 -0.17523618 1.8140001
-0.95612019 -0.1748424 1.814
-0.94491893 -0.1737923 1.814
-0.98132265 -0.16854177 1.8140001
-0.97397196 -0.16644157 1.8140001
-0.96557111 -0.16539146 1.814
-0.95664519 -0.16434136 1.8140001
-0.945409 -0.16476139 1.814
-0.9340679 -0.1638163 1.8140001
-0.96478349 -0.15830326 1.8140001
-0.95612007 -0.15594052 1.814
-0.94509411 -0.15751567 1.8140001
-0.93496799 -0.15549047 1.8140002
-0.92776728 -0.1527902 1.8140001
-0.96242076 -0.14963989 1.8140001
-0.95612013 -0.14711963 1.8140001
-0.94194371 -0.14018895 1.8140001
-0.93378156 -0.14477122 1.8139999
-0.92776728 -0.14438938 1.8140001
-0.88681322 -0.14018895 1.8140001
-0.96320832 -0.13388832 1.8140001
-0.95612007 -0.13388833 1.814
-0.94621915 -0.13433838 1.8140002
-0.93301785 -0.13493843 1.8140001
-0.92506707 -0.13298823 1.8140002
-0.91831636 -0.13073801 1.8140001
-0.90571511 -0.13073801 1.8140001
-0.8962642 -0.13073801 1.8140001
-0.88681322 -0.13703863 1.8140001
-0.96399593 -0.12758769 1.8140001
-0.93091762 -0.12758769 1.8140001
-0.92461693 -0.12443737 1.814
-0.91642618 -0.12317725 1.8140001
-0.90414 -0.12128707 1.8140001
-0.8962642 -0.12758769 1.8140001
-0.95769525 -0.11183613 1.8140001
-0.92356682 -0.11708666 1.8140001
-0.91477233 -0.11538024 1.8140001
-0.90571511 -0.11341128 1.8140001
-0.95769525 -0.10868581 1.8140001
-0.92461693 -0.10364532 1.8140001
-0.91516602 -0.10553549 1.814
-0.90781534 -0.10658561 1.8140001
-0.89468902 -0.10238519 1.8140001
-0.88996357 -0.10238519 1.8140001
-0.93091762 -0.097659715 1.8140001
-0.92461705 -0.096084557 1.814
-0.91516602 -0.096084557 1.814
-0.90697521 -0.094824433 1.8140001
-0.89941448 -0.092934243 1.8140001
-0.88996357 -0.092934243 1.8140001
-0.95296979 -0.089783929 1.8140001
-0.92776728 -0.089783929 1.8140001
-0.9159537 -0.085846044 1.8140001
-0.90542877 -0.084915273 1.8139999
-0.89626408 -0.085058473 1.8139999
-0.88624048 -0.083483316 1.8139999
-0.92146665 -0.074032366 1.8140001
-0.91426611 -0.074482411 1.8140002
-0.90571511 -0.074032359 1.814
-0.8962642 -0.074032366 1.814
-0.88523805 -0.074032381 1.8139999
-0.87421203 -0.070882052 1.8140001
-0.86791134 -0.070882052 1.8140001
-0.92146665 -0.063006267 1.8140001
-0.91426611 -0.064581424 1.8140002
-0.90571523 -0.064581431 1.814
-0.8962642 -0.064581424 1.814
-0.88523805 -0.064581424 1.8139999
-0.87421197 -0.064581431 1.814
-0.86515486 -0.064187631 1.8140001
-0.85846043 -0.063006267 1.8140001
-0.91411602 -0.057230696 1.8140001
-0.90571517 -0.056705646 1.8140001
-0.89626426 -0.058280803 1.8140001
-0.88156271 -0.057230696 1.8140001
-0.87381816 -0.055524275 1.8140001
-0.86476105 -0.055130485 1.814
-0.85531014 -0.055130485 1.814
-0.84900945 -0.055130489 1.8140001
-0.88366294 -0.0472547 1.8140001
-0.87232178 -0.046309605 1.8140001
-0.86436719 -0.046073332 1.8140001
-0.85531014 -0.045679543 1.814
-0.8479594 -0.044629447 1.8140001
-0.87106168 -0.039378919 1.8140001
-0.86386096 -0.03577856 1.8140002
-0.85531014 -0.036228601 1.814
-0.84743428 -0.036228605 1.8140001
-0.83010757 -0.036228605 1.8140001
-0.82223177 -0.036228605 1.8140001
-0.87342441 -0.0291404 1.8140001
-0.86504745 -0.025632098 1.8139999
-0.85531014 -0.027171455 1.8140001
-0.84554404 -0.026147604 1.814
-0.83798337 -0.020477038 1.8140001
-0.8224569 -0.025427533 1.8140002
-0.81561613 -0.023627354 1.8140001
-0.8080554 -0.020477038 1.8140001
-0.86413097 -0.0160666 1.8140001
-0.85373491 -0.014963989 1.8140001
-0.84585911 -0.014176412 1.814
-0.8357082 -0.013476342 1.814
-0.82420075 -0.014570201 1.8140001
-0.81435603 -0.014176412 1.814
-0.80679524 -0.014176412 1.8140001
-0.79702926 -0.014176412 1.8140001
-0.85215986 -0.0047254702 1.8140001
-0.84585911 -0.0047254702 1.814
-0.83526266 -0.0050118626 1.8139999
-0.82335693 -0.0056255599 1.8140002
-0.81435603 -0.0047254702 1.814
-0.79671425 -0.0053555327 1.8140001
-0.85491633 0.0043316809 1.8140001
-0.84585911 0.0047254702 1.814
-0.83730829 0.0047254707 1.8140002
-0.82065666 0.0047254702 1.8140001
-0.81488109 0.004200418 1.8140001
-0.79545414 0.0031503134 1.8140001
-0.85404998 0.014806474 1.8140001
-0.84585923 0.014176412 1.8140001
-0.81435597 0.011026097 1.8140001
-0.80490512 0.01627662 1.8140001
-0.79455405 0.014626456 1.8140002
-0.78789341 0.014806474 1.8140001
-0.77655226 0.017326724 1.8140001
-0.80175477 0.020477038 1.8140001
-0.79440403 0.022577249 1.8140001
-0.78639698 0.024021141 1.8140001
-0.77534062 0.02605067 1.8139998
-0.763951 0.0291404 1.8140001
-0.77565223 0.03487847 1.8140002
-0.76342601 0.035178497 1.8140001
-0.75450003 0.03662239 1.8140001
-0.74662429 0.037803762 1.8140001
-0.73559821 0.036228605 1.8140001
-0.78915352 0.048829857 1.8140001
-0.77497709 0.046467122 1.8140001
-0.76485115 0.045229502 1.8140002
-0.75371248 0.043316811 1.8140001
-0.74594921 0.046129592 1.8140002
-0.7363857 0.046467122 1.8140001
-0.78757834 0.053555328 1.8140001
-0.77592224 0.055445518 1.814
-0.76316345 0.055918064 1.8140001
-0.75765038 0.051980171 1.8140001
-0.74504912 0.055130485 1.814
-0.73559815 0.055130485 1.814
-0.77812743 0.061431114 1.8140001
-0.75765038 0.061431114 1.8140001
-0.74465537 0.064187631 1.8140001
-0.73559827 0.064581424 1.814
-0.72929758 0.067731738 1.8140001
-0.74189883 0.070882052 1.8140001
-0.73244786 0.070882052 1.8140001
-0.72719735 0.075082473 1.8140001
-0.72434717 0.084383398 1.8140002
-0.71795648 0.087893747 1.8140001
-0.72299695 0.096084557 1.8140001
-0.71709007 0.095690764 1.8140001
-0.71669638 0.10553549 1.8140001
-0.71526438 0.11527284 1.8139999
-0.70724535 0.11813676 1.8140001
-0.71512121 0.12443738 1.8139999
-0.70724535 0.12286222 1.8140001
-0.71459615 0.13073801 1.8140001
-0.98039699 -0.23282449 1.8240001
-0.96139091 -0.23282449 1.8240001
-0.95505553 -0.23440832 1.8240001
-0.94872022 -0.23599216 1.8240001
-0.98145288 -0.22332144 1.8240001
-0.97532862 -0.22458851 1.8240002
-0.96139091 -0.22490528 1.8240001
-0.95624346 -0.22411337 1.8240002
-0.92513859 -0.22367342 1.8240002
-0.91308379 -0.2256972 1.8240001
-0.98039699 -0.21698609 1.8240001
-0.96139091 -0.21540225 1.8240001
-0.95596063 -0.21336587 1.8240004
-0.94238484 -0.21065073 1.8240001
-0.93552154 -0.21276252 1.8240002
-0.92549062 -0.2148743 1.8240002
-0.91704339 -0.21381842 1.8240001
-0.97089392 -0.20114769 1.8240001
-0.9645586 -0.2030483 1.8240002
-0.9539997 -0.20484333 1.8240002
-0.94555253 -0.20431538 1.8240002
-0.93731654 -0.20558242 1.8240002
-0.92971408 -0.20431536 1.8240001
-0.91625148 -0.20510729 1.8240001
-0.96297479 -0.19798 1.8240001
-0.95399964 -0.19481233 1.8240002
-0.94510001 -0.19571738 1.8240004
-0.93921715 -0.19164464 1.8240001
-0.92258686 -0.19243658 1.8240001
-0.91704339 -0.19481234 1.8240001
-0.95267975 -0.18610121 1.8240001
-0.9423849 -0.18530929 1.8240001
-0.935597 -0.18440424 1.8240004
-0.92453068 -0.18502133 1.8240001
-0.91704339 -0.18530929 1.8240001
-0.97406161 -0.17263857 1.8240001
-0.95347166 -0.17897393 1.8240001
-0.94317681 -0.17659816 1.8240001
-0.93644542 -0.17620222 1.8240002
-0.92564142 -0.17761634 1.8240004
-0.91704339 -0.17580625 1.8240001
-0.9645586 -0.16947089 1.8240001
-0.95611143 -0.168415 1.8240001
-0.94238484 -0.16471937 1.8240001
-0.93763328 -0.16788705 1.8240001
-0.92021108 -0.16630322 1.8240001
-0.91625148 -0.16551128 1.8240001
-0.92337883 -0.15574428 1.8240001
-0.9142276 -0.15433641 1.8240002
-0.90437269 -0.15204865 1.8240002
-0.89486969 -0.15204865 1.8240001
-0.88536656 -0.15204865 1.8240001
-0.93288177 -0.14729713 1.8240001
-0.9273383 -0.14333753 1.8240001
-0.91149992 -0.14492136 1.8240001
-0.90346771 -0.14458197 1.8240004
-0.89532232 -0.14412946 1.8240004
-0.88581908 -0.1432244 1.8240004
-0.92337883 -0.13598399 1.8240004
-0.9138757 -0.13462642 1.8240004
-0.90482527 -0.13553146 1.8240004
-0.89486969 -0.13462642 1.8240004
-0.8853665 -0.1346264 1.8240002
-0.87903124 -0.1346264 1.8240001
-0.92021108 -0.1267072 1.8240001
-0.91387576 -0.12602842 1.8240004
-0.90437275 -0.12512337 1.8240004
-0.89441705 -0.12421833 1.8240004
-0.88853425 -0.12512337 1.8240001
-0.91308379 -0.11641224 1.8240001
-0.90437263 -0.11562032 1.8240002
-0.89486963 -0.11562032 1.8240002
-0.88853425 -0.11562032 1.8240001
-0.87480772 -0.11456442 1.8240001
-0.86477661 -0.11245264 1.8240001
-0.91176391 -0.1050614 1.8240001
-0.90476865 -0.10651324 1.8240002
-0.89441717 -0.10702234 1.8240004
-0.88615847 -0.10849304 1.8240001
-0.87649709 -0.10675082 1.8240002
-0.86160898 -0.10611728 1.8240001
-0.85685748 -0.1029496 1.8240001
-0.91070801 -0.098198086 1.8240001
-0.90392023 -0.097519301 1.8240004
-0.89441711 -0.095256664 1.8240004
-0.8864224 -0.094502456 1.8240002
-0.87797534 -0.093446568 1.8240001
-0.88409948 -0.085210599 1.8240002
-0.87713063 -0.082676455 1.8240002
-0.8505221 -0.080775842 1.8240001
-0.88219893 -0.076024324 1.8240001
-0.87586355 -0.076024324 1.8240002
-0.86477673 -0.072856642 1.8240001
-0.85368979 -0.072856635 1.8240002
-0.86002517 -0.061769761 1.8240001
-0.85368973 -0.064541481 1.8240002
-0.81250995 -0.061769761 1.8240001
-0.85052216 -0.055434402 1.8240001
-0.84373432 -0.05452935 1.8240004
-0.83428782 -0.055830363 1.8240002
-0.82676446 -0.052266721 1.8240001
-0.81250995 -0.055434402 1.8240001
-0.851578 -0.046987258 1.8240001
-0.84418678 -0.045931362 1.8240002
-0.83377868 -0.046383891 1.8240004
-0.82518065 -0.045297828 1.8240002
-0.81250995 -0.049099043 1.8240001
-0.84389877 -0.035276435 1.8240001
-0.83214951 -0.035794787 1.8240002
-0.82472813 -0.036428321 1.8240004
-0.81658274 -0.035975795 1.8240004
-0.84260291 -0.02534144 1.8240001
-0.83428782 -0.023361642 1.8240002
-0.82359684 -0.023757601 1.8240001
-0.81567764 -0.025024673 1.8240002
-0.80617458 -0.021856992 1.8240002
-0.7987833 -0.021645814 1.8240001
-0.83679551 -0.016366348 1.8240001
-0.82518065 -0.01108688 1.8240001
-0.80696654 -0.014254561 1.8240001
-0.79540455 -0.01425456 1.8240002
-0.78083313 -0.01267072 1.8240001
-0.81250995 -0.0047515202 1.8240001
-0.80707973 -0.0042989948 1.8240004
-0.79440898 -0.0047515202 1.8240004
-0.78273374 -0.0047515202 1.8240002
-0.77449781 -0.0047515202 1.8240001
-0.73806942 -0.00158384 1.8240001
-0.81441063 0.0047515202 1.8240002
-0.80617464 0.0047515202 1.8240002
-0.79455978 0.0054554488 1.8240002
-0.78400087 0.0047515202 1.8240002
-0.77449775 0.0079192016 1.8240001
-0.75865936 0.0079192007 1.8240001
-0.81409383 0.01267072 1.8240001
-0.80617464 0.012670721 1.8240002
-0.79033619 0.01108688 1.8240001
-0.78439683 0.013858601 1.8240002
-0.77449781 0.014254562 1.8240002
-0.7649948 0.01742224 1.8240001
-0.75639683 0.014707088 1.8240004
-0.74651664 0.015310454 1.8240002
-0.78558469 0.02058992 1.8240001
-0.77259719 0.023124065 1.8240002
-0.76459873 0.02336164 1.8240002
-0.75639683 0.023305077 1.8240004
-0.74638468 0.023757599 1.8240002
-0.73965329 0.02058992 1.8240001
-0.76182705 0.03009296 1.8240001
-0.75628364 0.031676799 1.8240001
-0.74535525 0.034210946 1.8240002
-0.73688155 0.03603236 1.8240002
-0.74440479 0.044347521 1.8240001
-0.73490179 0.045931362 1.8240002
-0.73331803 0.055434402 1.8240001
-0.7238149 0.058602083 1.8240001
-0.73141736 0.064303905 1.8240002
-0.72571558 0.064303905 1.8240002
-0.73015028 0.071272805 1.8240001
-0.72341895 0.074044526 1.8240002
-0.72143912 0.083151601 1.8240001
-0.71747959 0.083943531 1.8240001
-0.9852345 -0.23078999 1.8330001
-0.95594805 -0.23206332 1.8330001
-0.94066811 -0.23078999 1.8330001
-0.91201836 -0.23078999 1.8330001
-0.9852345 -0.22124006 1.8330001
-0.95300353 -0.22442338 1.8330001
-0.94345355 -0.22402547 1.8330001
-0.93589312 -0.22362754 1.8330001
-0.91520166 -0.22124006 1.8330001
-0.90883505 -0.22760667 1.8330001
-0.95300353 -0.21527137 1.8330001
-0.94544315 -0.21646509 1.8330001
-0.9374848 -0.21805674 1.8330001
-0.91565645 -0.21487343 1.8330002
-0.91599751 -0.20611933 1.8330001
-0.959768 -0.19895688 1.8330001
-0.91758919 -0.19497773 1.8330001
-0.91626281 -0.18569309 1.8330001
-0.90406007 -0.18304034 1.8330001
-0.95021808 -0.17030708 1.8330001
-0.94385147 -0.17030708 1.8330001
-0.93430156 -0.17189877 1.8330001
-0.9263432 -0.17349041 1.8330001
-0.9152016 -0.1745515 1.8329999
-0.90671277 -0.17402095 1.8330001
-0.94066811 -0.16234881 1.8330001
-0.93302816 -0.16521381 1.8330001
-0.92793489 -0.16394047 1.8330001
-0.91414058 -0.16394047 1.8330001
-0.90777397 -0.16181827 1.8330001
-0.89610177 -0.16075715 1.8330001
-0.88973516 -0.16234881 1.8330001
-0.94066811 -0.15757385 1.8330001
-0.93302822 -0.15439056 1.8330001
-0.92581272 -0.1549211 1.8330001
-0.91360998 -0.15757385 1.8330001
-0.90565175 -0.15757385 1.8330001
-0.89610183 -0.15484531 1.8330002
-0.88407594 -0.15439053 1.8329999
-0.87381858 -0.15439053 1.8329999
-0.93217933 -0.14590171 1.8330001
-0.92435366 -0.1448406 1.8330001
-0.91520166 -0.14324895 1.8330001
-0.89928508 -0.14802392 1.8330001
-0.88336849 -0.14563642 1.8330001
-0.8762061 -0.14563642 1.8330001
-0.92156827 -0.13847399 1.8330001
-0.88098109 -0.13529068 1.8330001
-0.87700194 -0.13847399 1.8330001
-0.90246838 -0.12892406 1.8330001
-0.89928508 -0.12892406 1.8330001
-0.88496017 -0.12574077 1.8330001
-0.87700194 -0.12255744 1.8330001
-0.88591522 -0.11619081 1.8330001
-0.87461448 -0.11778247 1.8330001
-0.86373818 -0.11566027 1.8330001
-0.90246838 -0.10027426 1.8330001
-0.89451015 -0.10186592 1.8330001
-0.8853581 -0.1042534 1.8330001
-0.87350035 -0.10504923 1.8330001
-0.86426872 -0.10487238 1.8329999
-0.85432082 -0.10624296 1.8330001
-0.84471405 -0.10664089 1.8330002
-0.88336861 -0.095499307 1.8330001
-0.87381864 -0.093452893 1.8330002
-0.863814 -0.094817176 1.8330002
-0.85471869 -0.095180981 1.8330001
-0.84835213 -0.092315987 1.8330001
-0.88018525 -0.085949376 1.8330001
-0.87342077 -0.084755637 1.8330001
-0.86320758 -0.08541882 1.8330001
-0.85471874 -0.084357716 1.8330001
-0.87143111 -0.075603619 1.8330001
-0.86532974 -0.074807793 1.8330001
-0.85631037 -0.077991098 1.8330001
-0.87063533 -0.068441167 1.8330001
-0.86532986 -0.067380071 1.8330001
-0.85312712 -0.066053689 1.8330001
-0.84562367 -0.06434834 1.8330002
-0.83652848 -0.064803094 1.8330002
-0.82500792 -0.063135654 1.8330001
-0.8186413 -0.064196751 1.8330001
-0.85153544 -0.058891237 1.8330001
-0.84516883 -0.055707924 1.8330001
-0.83243561 -0.057299584 1.8330001
-0.82567102 -0.056105841 1.8330001
-0.81970233 -0.055707928 1.8330001
-0.80537748 -0.057299584 1.8330001
-0.84410775 -0.045096897 1.8330001
-0.83243561 -0.046157997 1.8330001
-0.8255384 -0.046688553 1.8330001
-0.81842899 -0.045521338 1.8330001
-0.78404927 -0.044248015 1.8330001
-0.77513599 -0.044566344 1.8330001
-0.7677083 -0.044035792 1.8330001
-0.84198552 -0.03501641 1.8330001
-0.83880222 -0.031833101 1.8330001
-0.8175801 -0.032894205 1.8330001
-0.80696911 -0.030241447 1.8330001
-0.79105258 -0.03501641 1.8330001
-0.78468603 -0.035016418 1.8330001
-0.77577269 -0.035653077 1.8330001
-0.7677083 -0.037669171 1.8330001
-0.84198552 -0.027058136 1.8330001
-0.81439686 -0.025997033 1.8330001
-0.80298996 -0.026262308 1.8330001
-0.79423594 -0.023874827 1.8329999
-0.78508389 -0.02427274 1.8330001
-0.77640933 -0.02451149 1.8330001
-0.79332644 -0.014324896 1.8330002
-0.78595924 -0.014324895 1.8330001
-0.77604556 -0.013870137 1.8330002
-0.76240277 -0.011141585 1.8330001
-0.75921947 -0.011141585 1.8330001
-0.74648619 -0.011141586 1.8330001
-0.7926442 -0.0047749653 1.8330001
-0.78404933 -0.0047749649 1.8330001
-0.77422649 -0.0047749653 1.8330002
-0.76558602 -0.0043770517 1.8330001
-0.75603622 -0.0031833099 1.8330001
-0.74648619 -0.0042444132 1.8330001
-0.73534465 -0.0015916551 1.8330001
-0.79423589 0.0015916551 1.8330001
-0.78532261 0.0041383035 1.8330001
-0.77468127 0.0038654481 1.8330002
-0.76558614 0.0047749653 1.8330002
-0.75603622 0.0047749649 1.8329999
-0.74474984 0.0047749649 1.8330001
-0.73375297 0.0015916551 1.8330001
-0.72579467 0.0015916551 1.8330001
-0.77195269 0.01273324 1.8330001
-0.76717776 0.01273324 1.8330001
-0.75444448 0.011141585 1.8330001
-0.74290496 0.013926981 1.8330001
-0.73693627 0.011141585 1.8330001
-0.74266624 0.024511488 1.8330001
-0.75603616 0.030241447 1.8330001
-0.74011958 0.030241447 1.8330001
-0.73454881 0.034220584 1.8330001
-0.72738636 0.039791375 1.8330001
-0.73216128 0.046157997 1.8330001
-0.72738636 0.047749653 1.8330001
-0.73216128 0.055707932 1.8330001
-0.72738636 0.054116271 1.8330001
-0.72579467 0.068441167 1.8330001
-0.95380163 -0.2336494 1.8430001
-0.94686687 -0.23311596 1.8430002
-0.91219288 -0.23204906 1.8430001
-0.95220131 -0.22884838 1.8430001
-0.9425993 -0.22564772 1.8430001
-0.92019457 -0.22244704 1.8430001
-0.9118728 -0.22500758 1.8430001
-0.90739185 -0.22724804 1.8430001
-0.92019457 -0.21604568 1.8430001
-0.91287881 -0.21604566 1.8430002
-0.90419114 -0.212845 1.8430001
-0.89778984 -0.212845 1.8430001
-0.92019457 -0.20324299 1.8430002
-0.91350228 -0.20440687 1.8430003
-0.90419114 -0.20548344 1.8430003
-0.89714974 -0.20516339 1.8430001
-0.85938174 -0.20004229 1.8430001
-0.92019457 -0.19684163 1.8430001
-0.91379327 -0.19364093 1.8430002
-0.90419114 -0.19364095 1.8430002
-0.89565605 -0.19310752 1.8430002
-0.88712096 -0.19257407 1.8430002
-0.8760252 -0.19172056 1.8430001
-0.86618316 -0.19324087 1.8430002
-0.85858154 -0.19364095 1.8430001
-0.92019457 -0.18403891 1.8430001
-0.91379327 -0.18531917 1.8430001
-0.90379107 -0.18403891 1.8430002
-0.89498919 -0.18363881 1.8430002
