# .PCD v0.7 - Point Cloud Data file format
VERSION 0.7
FIELDS x y z rgb
SIZE 4 4 4 4
TYPE F F F F
COUNT 1 1 1 1
WIDTH 1038
HEIGHT 1
VIEWPOINT 0 0 0 1 0 0 0
POINTS 1038
DATA ascii
0.42524672 0.47518677 1.5890001 1.7632415e-38
0.43420151 0.47516164 1.5875454 1.598445e-38
0.44138893 0.47619563 1.5890001 1.4349763e-38
0.46486855 0.47559944 1.5890001 1.7632415e-38
0.47428387 0.47428668 1.5860001 1.7632415e-38
0.48505089 0.4753747 1.5866002 1.7632415e-38
0.49385116 0.47468227 1.5890001 1.7632415e-38
0.50583792 0.47535127 1.5883849 1.7632415e-38
0.51505136 0.47390258 1.5832857 1.7632415e-38
0.52514845 0.47340879 1.5834616 1.7632415e-38
0.53474522 0.47363576 1.5824547 1.7632415e-38
0.5446412 0.47438288 1.5863335 1.7632415e-38
0.55542654 0.47516432 1.5877694 1.7632415e-38
0.56496418 0.47432739 1.5861429 1.7632415e-38
0.57393837 0.47369418 1.5817275 1.7632415e-38
0.58572286 0.47430003 1.5810002 1.7632415e-38
0.59508926 0.47435442 1.5845557 1.7632415e-38
0.60523087 0.4742848 1.585706 1.7632415e-38
0.61531943 0.47406939 1.5839094 1.7632415e-38
0.62466311 0.47383767 1.5836667 1.7632415e-38
0.6354115 0.47430003 1.5810002 1.7632415e-38
0.64595151 0.47731146 1.5810001 1.7632415e-38
0.6760658 0.47430003 1.5810001 1.7632415e-38
0.68510002 0.47430006 1.5810002 1.7632415e-38
0.69370419 0.47516042 1.5810002 1.7632415e-38
0.70645344 0.47550386 1.585 1.7632415e-38
0.71483791 0.47467643 1.5810002 1.7632415e-38
0.72381437 0.47391099 1.5824547 1.7632415e-38
0.73027146 0.47430003 1.5810001 1.7632415e-38
0.74653322 0.4749023 1.5810002 1.7632415e-38
0.75486481 0.47530386 1.5810002 1.7632415e-38
0.76189154 0.4743 1.5810002 1.7632415e-38
0.81158006 0.47128859 1.5810001 1.7632415e-38
-0.75135148 0.48935717 1.5810001 2.8548317e-39
-0.74532866 0.48935717 1.5810001 2.7626361e-39
-0.73543394 0.48548537 1.5810002 5.5123046e-39
-0.72365141 0.48394573 1.5830001 1.5349158e-38
-0.71542525 0.48643044 1.5875456 1.7632415e-38
-0.70434755 0.48561785 1.5846924 1.7632415e-38
-0.6945473 0.48565149 1.5836668 1.7632415e-38
-0.68520999 0.48544765 1.5830001 1.7632415e-38
-0.6750477 0.48518729 1.5821431 1.7632415e-38
-0.66374636 0.48442936 1.5810003 1.7632415e-38
-0.65541595 0.48247391 1.5810002 1.7632415e-38
-0.64500439 0.48419294 1.5830001 1.7632415e-38
-0.63536042 0.48579028 1.5831337 1.7632415e-38
-0.62517124 0.48569259 1.5824549 1.7632415e-38
-0.61608952 0.48505345 1.5828463 1.7632415e-38
-0.60565352 0.48633376 1.585889 1.7632415e-38
-0.59474766 0.48653325 1.586091 1.7632415e-38
-0.58541697 0.48538429 1.5818002 1.7632415e-38
-0.57590991 0.48548153 1.585706 1.7632415e-38
-0.56452405 0.48464888 1.5867144 1.7632415e-38
-0.55578059 0.48510289 1.5858001 1.7632415e-38
-0.54493707 0.48563045 1.5850004 1.7632415e-38
-0.53436548 0.48606175 1.5850003 1.7632415e-38
-0.52512676 0.48578003 1.589 1.7632415e-38
-0.51459754 0.48545265 1.5830002 1.7632415e-38
-0.50515044 0.4855113 1.5856665 1.7632415e-38
-0.49493992 0.48588824 1.5844289 1.7632415e-38
-0.48578003 0.48578003 1.589 1.7632415e-38
-0.47548938 0.48638541 1.589 1.7632415e-38
-0.46560225 0.48678893 1.5890001 1.7632415e-38
-0.45551336 0.48729336 1.5890001 1.7632415e-38
-0.44582805 0.48638535 1.5890001 1.7632415e-38
-0.42343068 0.48638541 1.5890001 1.7632415e-38
-0.41465336 0.48578 1.5890001 1.7632415e-38
-0.40406004 0.48578003 1.589 1.7632415e-38
-0.39573669 0.48805004 1.5890001 1.7632415e-38
-0.37379336 0.48880669 1.5890001 1.7632415e-38
-0.21338002 0.48729336 1.5890001 1.7632415e-38
-0.20490535 0.48759604 1.5890001 1.7632415e-38
-0.19565241 0.48664483 1.5890001 1.7632415e-38
-0.18563557 0.48779783 1.5890001 1.7632415e-38
-0.17554668 0.48729336 1.5890001 1.7632415e-38
-0.14376667 0.48653668 1.589 1.7632415e-38
-0.13317335 0.48578006 1.5890001 1.7632415e-38
-0.12474191 0.48534766 1.5890001 1.7632415e-38
-0.11599391 0.485401 1.5858001 1.7632415e-38
-0.10931486 0.48393661 1.5810002 1.7632415e-38
-0.097871438 0.48634574 1.5810001 1.7632415e-38
-0.010557778 0.48414451 1.5836668 8.5882612e-39
-0.005741524 0.48661166 1.5858001 1.113193e-38
0.0045400001 0.48578006 1.5890001 1.1327482e-38
0.014124446 0.48729336 1.5890001 1.0129328e-38
0.027744446 0.48779783 1.5890001 1.7632415e-38
0.034806669 0.48729336 1.5890001 1.7632415e-38
0.043886669 0.48729336 1.5890001 1.7632415e-38
0.068100005 0.48578003 1.5890001 1.7632415e-38
0.076257564 0.48629105 1.5878574 1.7632415e-38
0.084746681 0.48578009 1.5890001 1.7632415e-38
0.094896391 0.48564559 1.5866001 1.7632415e-38
0.10545318 0.48601454 1.5856667 1.7632415e-38
0.11484519 0.48611632 1.589 1.7632415e-38
0.1263811 0.48715582 1.5878574 1.7632415e-38
0.13520519 0.48624033 1.5872222 1.7632415e-38
0.14472954 0.48544857 1.5830001 1.7632415e-38
0.15547842 0.48606035 1.585 1.7632415e-38
0.16446637 0.4858565 1.5843334 1.7632415e-38
0.17405547 0.4850558 1.5828462 1.7632415e-38
0.18502559 0.4852404 1.5834618 1.7632415e-38
0.1946225 0.48745853 1.5866002 1.7632415e-38
0.20343335 0.48688728 1.5855715 1.7632415e-38
0.21590224 0.48779783 1.5890001 1.7632415e-38
0.22483364 0.4865357 1.5844287 1.7632415e-38
0.23458956 0.48437658 1.5817275 1.7632415e-38
0.24549606 0.48552963 1.5859233 1.7632415e-38
0.25441119 0.48356551 1.5830002 1.7632415e-38
0.2685191 0.4833343 1.5810001 1.7632415e-38
0.27589434 0.48544765 1.5830002 1.7632415e-38
0.2850931 0.48576206 1.5853637 1.7632415e-38
0.29573238 0.48642334 1.5870001 1.7632415e-38
0.30332011 0.48521456 1.582778 1.7632415e-38
0.39826149 0.48258147 1.5810001 1.7632415e-38
0.40533829 0.48393661 1.5810002 1.7632415e-38
0.41477245 0.48565397 1.5836668 1.7632415e-38
0.42445207 0.48530322 1.5815334 1.7632415e-38
0.43476176 0.48524511 1.5823334 1.2149333e-38
0.44474146 0.48626417 1.5856669 1.6993888e-38
0.45551333 0.48759604 1.5890001 1.7632415e-38
0.46459335 0.48578003 1.589 1.7632415e-38
0.47458541 0.4851712 1.5870001 1.7632415e-38
0.48601577 0.48601574 1.5856669 1.7632415e-38
0.4957248 0.48578006 1.5890001 1.7632415e-38
0.50535756 0.48583284 1.5882727 1.7632415e-38
0.51511669 0.48499379 1.5814999 1.7632415e-38
0.52449054 0.48534194 1.5810002 1.7632415e-38
0.53377575 0.48333433 1.5810002 1.7632415e-38
0.54627317 0.48423776 1.5810002 1.7632415e-38
0.55590975 0.48393661 1.5810002 1.7632415e-38
0.56527609 0.4842158 1.582778 1.7632415e-38
0.57460958 0.48537031 1.5814999 1.7632415e-38
0.58572286 0.48514119 1.5810002 1.7632415e-38
0.59452307 0.48514515 1.5816154 1.7632415e-38
0.60548913 0.48499286 1.5814999 1.7632415e-38
0.61583722 0.48484001 1.5810002 1.7632415e-38
0.62426919 0.48423776 1.5810002 1.7632415e-38
0.63541144 0.4803229 1.5810001 1.7632415e-38
0.66402006 0.48935717 1.5810001 1.7632415e-38
0.68811148 0.4833343 1.5810001 1.7632415e-38
0.69413441 0.48182863 1.5810002 1.7632415e-38
0.70467424 0.48483998 1.581 1.7632415e-38
0.71454513 0.48366892 1.5810002 1.7632415e-38
0.72424865 0.4833343 1.5810001 1.7632415e-38
0.73629433 0.48634574 1.5810001 1.7632415e-38
0.74683434 0.4803229 1.5810001 1.7632415e-38
0.75436294 0.4803229 1.5810001 1.7632415e-38
-0.79351151 0.49839145 1.5810001 2.3934977e-39
-0.75210434 0.49538004 1.5810001 3.1325158e-39
-0.74532866 0.49538004 1.5810002 2.9481092e-39
-0.73780006 0.49538001 1.5810002 1.8424875e-39
-0.72186005 0.49183336 1.5890001 1.7632415e-38
-0.71497101 0.4950254 1.5818003 1.7632415e-38
-0.70467436 0.49538001 1.5810002 1.7632415e-38
-0.69327396 0.49494985 1.5810002 1.7632415e-38
-0.68690693 0.49477774 1.5810002 1.7632415e-38
-0.67606574 0.49538007 1.5810002 1.7632415e-38
-0.66301626 0.49437624 1.5810001 1.7632415e-38
-0.65197432 0.49538004 1.5810001 1.7632415e-38
-0.64494771 0.49437624 1.5810001 1.7632415e-38
-0.63424039 0.49471086 1.5810002 1.7632415e-38
-0.62487149 0.49538004 1.5810002 1.7632415e-38
-0.61583722 0.49538004 1.5810002 1.7632415e-38
-0.60589951 0.49477774 1.5810002 1.7632415e-38
-0.5947572 0.49538004 1.5810002 1.7632415e-38
-0.58572292 0.49538004 1.5810002 1.7632415e-38
-0.57485712 0.49467075 1.5826001 1.7632415e-38
-0.56457651 0.49471322 1.5840771 1.7632415e-38
-0.55550098 0.49511623 1.5850003 1.7632415e-38
-0.54465801 0.49565378 1.5810003 1.7632415e-38
-0.53416425 0.49523681 1.583182 1.7632415e-38
-0.52617866 0.49536762 1.5858001 1.7632415e-38
-0.51545233 0.49596494 1.5846366 1.7632415e-38
-0.50676811 0.49543336 1.5860001 1.7632415e-38
-0.49473521 0.49528548 1.5824547 1.7632415e-38
-0.48643041 0.49495459 1.5875454 1.7632415e-38
-0.47518671 0.49486005 1.5890001 1.7632415e-38
-0.46459335 0.49486002 1.589 1.7632415e-38
-0.45551333 0.49486002 1.589 1.7632415e-38
-0.44600099 0.4961572 1.5890001 1.7632415e-38
-0.43401435 0.49666166 1.5878574 1.7632415e-38
-0.42478272 0.49628937 1.5863336 1.7632415e-38
-0.41484028 0.49513173 1.5883846 1.7632415e-38
-0.40406004 0.49486002 1.589 1.7632415e-38
-0.39497998 0.49486002 1.589 1.7632415e-38
-0.38650537 0.49667603 1.5890001 1.7632415e-38
-0.37439868 0.4951627 1.589 1.7632415e-38
-0.36774004 0.49486002 1.5890001 1.7632415e-38
-0.27694002 0.49183336 1.5890001 1.7632415e-38
-0.26483339 0.49183339 1.5890001 1.7632415e-38
-0.24970001 0.49788669 1.5890001 1.7632415e-38
-0.22367068 0.49546537 1.5890001 1.7632415e-38
-0.21489334 0.49486005 1.5890001 1.7632415e-38
-0.2043 0.49486002 1.589 1.7632415e-38
-0.19522002 0.49486002 1.589 1.7632415e-38
-0.18462668 0.49486002 1.5890001 1.7632415e-38
-0.17403334 0.49486002 1.589 1.7632415e-38
-0.16495335 0.49637336 1.5890001 1.7632415e-38
-0.15587334 0.49607071 1.5890001 1.7632415e-38
-0.14437202 0.4951627 1.589 1.7632415e-38
-0.13382192 0.49529243 1.5890001 1.7632415e-38
-0.12522833 0.49523833 1.589 1.7632415e-38
-0.11660562 0.49475485 1.5854446 1.7632415e-38
-0.10991715 0.49236861 1.5810001 1.7632415e-38
-0.0035133339 0.49638385 1.5810001 1.0309374e-38
0.0015057144 0.49839145 1.5810001 8.3999169e-39
0.015349525 0.49399531 1.5890001 1.205318e-38
0.025726669 0.49637336 1.5890001 1.7632415e-38
0.034758877 0.49609828 1.5868182 1.7632415e-38
0.045710552 0.49493888 1.5877694 1.7632415e-38
0.055993341 0.49637336 1.5890001 1.7632415e-38
0.064230956 0.49650335 1.5870001 1.7632415e-38
0.075365722 0.49505138 1.5827144 1.7632415e-38
0.086007945 0.49490857 1.5843337 1.7632415e-38
0.095222436 0.49473521 1.5824547 1.7632415e-38
0.10519185 0.49558738 1.5844287 1.7632415e-38
0.11608668 0.49449334 1.5830002 1.7632415e-38
0.12508927 0.49473524 1.5824547 1.7632415e-38
0.13385673 0.49473518 1.5824547 1.7632415e-38
0.1439033 0.49408945 1.5810002 1.7632415e-38
0.15458667 0.49437627 1.5810002 1.7632415e-38
0.1629183 0.49477777 1.5810002 1.7632415e-38
0.1766143 0.49285764 1.585 1.7632415e-38
0.18440056 0.49459526 1.582778 1.7632415e-38
0.19337675 0.49494988 1.5810002 1.7632415e-38
0.20467287 0.49467668 1.586 1.7632415e-38
0.21520564 0.49490875 1.5882728 1.7632415e-38
0.22424126 0.49437109 1.5832858 1.7632415e-38
0.23940858 0.49538004 1.5810001 1.7632415e-38
0.24482916 0.49477774 1.5810002 1.7632415e-38
0.25521857 0.49763861 1.5810001 1.7632415e-38
0.26450384 0.49839148 1.5810001 1.7632415e-38
0.27253431 0.49538004 1.5810001 1.7632415e-38
0.28856161 0.49402958 1.5863335 1.7632415e-38
0.29574114 0.49449587 1.5830002 1.7632415e-38
0.30415434 0.49538004 1.5810002 1.7632415e-38
0.4080486 0.49236861 1.5810001 1.7632415e-38
0.41527602 0.49417543 1.5810002 1.7632415e-38
0.42461151 0.49538004 1.5810002 1.7632415e-38
0.43515143 0.49538004 1.5810002 1.0957979e-38
0.44443718 0.49565855 1.5818892 1.7632415e-38
0.45494002 0.49574289 1.5870001 1.7632415e-38
0.46308005 0.49486002 1.5890001 1.7632415e-38
0.47468224 0.49418741 1.589 1.7632415e-38
0.48622805 0.49575621 1.5859231 1.7632415e-38
0.49601361 0.49518961 1.5839092 1.7632415e-38
0.50551945 0.4950577 1.5859231 1.7632415e-38
0.51592481 0.49481243 1.5840001 1.7632415e-38
0.52549434 0.49538004 1.5810002 1.7632415e-38
0.53452855 0.49538004 1.5810002 1.7632415e-38
0.54446638 0.49477777 1.5810002 1.7632415e-38
0.55555481 0.49449337 1.5830001 1.7632415e-38
0.56488723 0.49473518 1.5824547 1.7632415e-38
0.57518291 0.49538004 1.5810002 1.7632415e-38
0.58534646 0.49500364 1.5810002 1.7632415e-38
0.59701574 0.49462718 1.5810001 1.7632415e-38
0.60680288 0.49462718 1.5810002 1.7632415e-38
0.61583722 0.49538004 1.5810002 1.7632415e-38
0.62487155 0.49538004 1.5810002 1.7632415e-38
0.70354503 0.49500358 1.5810002 1.7632415e-38
0.71220291 0.49538004 1.5810001 1.7632415e-38
-0.84292674 0.50999337 1.5890001 2.3952969e-39
-0.83416581 0.50742573 1.5810001 2.4860562e-39
-0.78748864 0.50441432 1.5810001 2.1194149e-39
-0.77544296 0.50592005 1.5810001 3.6842281e-39
-0.76841629 0.50642198 1.5810001 3.5002067e-39
-0.75436288 0.50140291 1.5810001 4.6944339e-39
-0.74412411 0.50320977 1.5810002 3.131783e-39
-0.73855287 0.50366145 1.5810001 2.7626389e-39
-0.71521437 0.50140297 1.5810001 1.7632415e-38
-0.7061801 0.50140297 1.5810001 1.7632415e-38
-0.67907721 0.50140291 1.5810001 1.7632415e-38
-0.6308943 0.50140291 1.5810001 1.7632415e-38
-0.62401104 0.50398415 1.5810002 1.7632415e-38
-0.61583722 0.50441432 1.5810002 1.7632415e-38
-0.6086098 0.50381202 1.5810002 1.7632415e-38
-0.59174573 0.50140291 1.5810001 1.7632415e-38
-0.57427949 0.5041132 1.5810002 1.7632415e-38
-0.56464291 0.50441438 1.5810002 1.7632415e-38
-0.55560857 0.50441438 1.5810002 1.7632415e-38
-0.54506862 0.50441432 1.5810002 1.7632415e-38
-0.53446418 0.505229 1.5826002 1.7632415e-38
-0.52553284 0.50521588 1.586091 1.7632415e-38
-0.51569259 0.50525486 1.5853637 1.7632415e-38
-0.50576341 0.50493526 1.586091 1.7632415e-38
-0.49538004 0.50441432 1.5810002 1.7632415e-38
-0.48616737 0.50490427 1.5863335 1.7632415e-38
-0.47518671 0.50545341 1.5890002 1.7632415e-38
-0.46381116 0.50460011 1.5863335 1.7632415e-38
-0.45551336 0.50545335 1.5890001 1.7632415e-38
-0.44492003 0.50545347 1.5890002 1.7632415e-38
-0.43511909 0.5050081 1.5855716 1.7632415e-38
-0.42461151 0.50441432 1.5810002 1.7632415e-38
-0.41350952 0.50473517 1.5858003 1.7632415e-38
-0.40406007 0.50545347 1.5890001 1.7632415e-38
-0.39498004 0.50545335 1.5890001 1.7632415e-38
-0.385575 0.50502551 1.5876667 1.7632415e-38
-0.37518811 0.50529289 1.5885003 1.7632415e-38
-0.36774004 0.50545341 1.5890001 1.7632415e-38
-0.31931335 0.50848007 1.5890001 1.7632415e-38
-0.30115336 0.50999337 1.5890001 1.7632415e-38
-0.29510003 0.50999343 1.5890001 1.7632415e-38
-0.28602001 0.50848001 1.5890001 1.7632415e-38
-0.27559486 0.50797558 1.589 1.7632415e-38
-0.26407668 0.50696665 1.589 1.7632415e-38
-0.2554507 0.50636142 1.589 1.7632415e-38
-0.2459749 0.50626826 1.5890002 1.7632415e-38
-0.23456669 0.50848007 1.5890001 1.7632415e-38
-0.22367068 0.50636142 1.5890001 1.7632415e-38
-0.21489334 0.50545341 1.5890002 1.7632415e-38
-0.20430002 0.50545341 1.5890001 1.7632415e-38
-0.19549517 0.50504071 1.5890001 1.7632415e-38
-0.1845258 0.50535256 1.5890002 1.7632415e-38
-0.17403337 0.50545347 1.5890001 1.7632415e-38
-0.1648162 0.50502545 1.5876667 1.7632415e-38
-0.15567589 0.50481278 1.5870001 1.7632415e-38
-0.1450962 0.50481242 1.5870003 1.7632415e-38
-0.13457365 0.5050267 1.5876669 1.7632415e-38
-0.12560669 0.50545335 1.5890001 1.7632415e-38
-0.11737023 0.50455737 1.5850002 1.7632415e-38
-0.0030126986 0.50483716 1.5823336 6.0089472e-39
0.0048130741 0.50517005 1.5868183 9.2379522e-39
0.01512286 0.50513339 1.5880002 1.5898357e-38
0.025703814 0.50502551 1.5876665 1.7632415e-38
0.034686461 0.50526172 1.5836667 1.7632415e-38
0.044914484 0.5037142 1.5826001 1.7632415e-38
0.055831432 0.5039658 1.5843334 1.7632415e-38
0.064991437 0.50481904 1.5870003 1.7632415e-38
0.074532866 0.50441432 1.5810002 1.7632415e-38
0.085825711 0.50441432 1.5810002 1.7632415e-38
0.094860002 0.50479078 1.5810002 1.7632415e-38
0.10449658 0.5041132 1.5810002 1.7632415e-38
0.11518715 0.50215572 1.5810001 1.7632415e-38
0.12437201 0.50260746 1.5810002 1.7632415e-38
0.13250287 0.50140291 1.5810001 1.7632415e-38
0.15651172 0.50667417 1.5867144 1.7632415e-38
0.16404423 0.50637078 1.5844287 1.7632415e-38
0.17240429 0.50516719 1.5810001 1.7632415e-38
0.19499001 0.50366145 1.5810001 1.7632415e-38
0.20629787 0.50574219 1.584 1.7632415e-38
0.21530609 0.50366491 1.5890001 1.7632415e-38
0.22479048 0.50351471 1.5876667 1.7632415e-38
0.23579489 0.50381202 1.5810002 1.7632415e-38
0.24342382 0.50341052 1.5810001 1.7632415e-38
0.25371289 0.50516719 1.5810001 1.7632415e-38
0.29813147 0.50140291 1.5810001 1.7632415e-38
0.30465621 0.50240672 1.5810001 1.7632415e-38
0.41708288 0.50441432 1.5810001 1.7632415e-38
0.42461145 0.50403786 1.5810002 1.7632415e-38
0.43477502 0.50441432 1.5810002 1.1493164e-38
0.44461596 0.50441438 1.5810002 1.6538318e-38
0.45472574 0.50441444 1.5810002 1.7632415e-38
0.46446171 0.50366515 1.5834001 1.7632415e-38
0.47468835 0.5042969 1.5863335 1.7632415e-38
0.4848665 0.50434029 1.5822308 1.7632415e-38
0.49538004 0.50441438 1.5810002 1.7632415e-38
0.50441432 0.50441438 1.5810002 1.7632415e-38
0.51518196 0.50459886 1.5863335 1.7632415e-38
0.52506006 0.50532305 1.5853077 1.7632415e-38
0.53482741 0.50469619 1.581889 1.7632415e-38
0.54527867 0.50458503 1.5823334 1.7632415e-38
0.55404526 0.50316453 1.5830001 1.7632415e-38
0.56564677 0.50341052 1.5810002 1.7632415e-38
0.57518291 0.50441444 1.5810002 1.7632415e-38
0.58534646 0.50403786 1.5810002 1.7632415e-38
0.59273303 0.50308931 1.5863335 1.7632415e-38
0.60079336 0.50696671 1.5890001 1.7632415e-38
0.62687916 0.50341052 1.5810001 1.7632415e-38
0.6331529 0.50516719 1.5810001 1.7632415e-38
0.70316863 0.50140291 1.5810001 1.7632415e-38
0.71220291 0.50140291 1.5810001 1.7632415e-38
0.73027146 0.50140291 1.5810001 1.7632415e-38
-0.83717716 0.51495433 1.5810002 1.381145e-39
-0.76942003 0.5134486 1.5810001 2.9488434e-39
-0.70015717 0.51646006 1.5810001 1.7632415e-38
-0.69112289 0.51495433 1.5810001 1.7632415e-38
-0.68610394 0.51244485 1.5810001 1.7632415e-38
-0.62186003 0.51043719 1.5810001 1.7632415e-38
-0.61508429 0.51269573 1.5810001 1.7632415e-38
-0.60508215 0.51732051 1.5810002 1.7632415e-38
-0.59551007 0.5187186 1.5810001 1.7632415e-38
-0.56163144 0.51344866 1.5810001 1.7632415e-38
-0.55533487 0.51454365 1.5810003 1.7632415e-38
-0.54480833 0.51531845 1.5836664 1.7632415e-38
-0.53330684 0.51517731 1.5863334 1.7632415e-38
-0.52531433 0.51323432 1.5850002 1.7632415e-38
-0.51559967 0.51172781 1.5810002 1.7632415e-38
-0.50140291 0.5134486 1.5810001 1.7632415e-38
-0.49538004 0.51194298 1.5810002 1.7632415e-38
-0.48484007 0.5145241 1.5810001 1.7632415e-38
-0.47495317 0.51470053 1.583182 1.7632415e-38
-0.46426195 0.51294672 1.5810002 1.7632415e-38
-0.45355463 0.51311404 1.5810002 1.7632415e-38
-0.44418573 0.51495427 1.5810002 1.7632415e-38
-0.43515146 0.51495433 1.5810002 1.7632415e-38
-0.42461148 0.51495433 1.581 1.7632415e-38
-0.41392699 0.51500428 1.5822308 1.7632415e-38
-0.40514332 0.51572186 1.5846366 1.7632415e-38
-0.39574844 0.51560134 1.5830002 1.7632415e-38
-0.38529027 0.51542771 1.5815334 1.7632415e-38
-0.37514222 0.51600438 1.5855716 1.7632415e-38
-0.36628526 0.51733297 1.5860001 1.7632415e-38
-0.35563335 0.51756006 1.5890001 1.7632415e-38
-0.31363833 0.51642507 1.589 1.7632415e-38
-0.30418003 0.51604676 1.589 1.7632415e-38
-0.29465029 0.51638925 1.5882 1.7632415e-38
-0.28603196 0.51666939 1.5875454 1.7632415e-38
-0.27543586 0.5163101 1.5883849 1.7632415e-38
-0.26500118 0.51638919 1.5882 1.7632415e-38
-0.25478768 0.51560003 1.5830001 1.7632415e-38
-0.24525122 0.51520288 1.5828462 1.7632415e-38
-0.23498295 0.51611853 1.5836669 1.7632415e-38
-0.2256743 0.51638925 1.5882 1.7632415e-38
-0.21489337 0.51604664 1.5890001 1.7632415e-38
-0.2037947 0.51612788 1.5874001 1.7632415e-38
-0.195135 0.51619422 1.586091 1.7632415e-38
-0.18494275 0.51619214 1.5861431 1.7632415e-38
-0.17420642 0.51594019 1.5827143 1.7632415e-38
-0.16419208 0.51517212 1.5816668 1.7632415e-38
-0.15525372 0.5156098 1.5858001 1.7632415e-38
-0.14469619 0.51502621 1.5815334 1.7632415e-38
-0.1348481 0.51377147 1.5820003 1.7632415e-38
-0.1249743 0.51043719 1.5810001 1.7632415e-38
-0.11794763 0.51144099 1.5810001 1.7632415e-38
-0.0025095241 0.51495433 1.5810002 6.4695568e-39
0.0045222221 0.51538479 1.5823334 7.3043733e-39
0.015069842 0.51387912 1.5823336 1.5169071e-38
0.025909716 0.51430917 1.5818002 1.7632415e-38
0.034631431 0.51495433 1.5810002 1.7632415e-38
0.045171436 0.51495439 1.581 1.7632415e-38
0.056343433 0.51461041 1.5818002 1.7632415e-38
0.06522055 0.51295722 1.5821432 1.7632415e-38
0.07378 0.51258826 1.5810002 1.7632415e-38
0.085825719 0.51043719 1.5810001 1.7632415e-38
0.096360691 0.51455992 1.5844287 1.7632415e-38
0.10496981 0.51516944 1.5810001 1.7632415e-38
0.11533772 0.51766461 1.5810002 1.7632415e-38
0.14982001 0.51302004 1.5890001 1.7632415e-38
0.15625168 0.51566839 1.589 1.7632415e-38
0.16457917 0.51656669 1.5854446 1.7632415e-38
0.17272696 0.51689023 1.5810002 1.7632415e-38
0.18520288 0.51796573 1.5810002 1.7632415e-38
0.19396341 0.51454365 1.5810003 1.7632415e-38
0.20251858 0.51420146 1.5810001 1.7632415e-38
0.21381144 0.5134486 1.5810001 1.7632415e-38
0.23338573 0.51646006 1.5810001 1.7632415e-38
0.25145429 0.5134486 1.5810001 1.7632415e-38
0.26952288 0.5134486 1.5810001 1.7632415e-38
0.42912859 0.51194286 1.5810001 1.7632415e-38
0.43552786 0.51382506 1.5810002 8.5619869e-39
0.44448692 0.51465315 1.5810002 1.507688e-38
0.45472571 0.51495433 1.581 1.7632415e-38
0.46466348 0.51495433 1.5810002 1.7632415e-38
0.47279435 0.51344866 1.5810002 1.7632415e-38
0.48677596 0.51301849 1.5810002 1.7632415e-38
0.49638382 0.5144524 1.5810002 1.7632415e-38
0.50592005 0.51194286 1.5810001 1.7632415e-38
0.51520532 0.51445246 1.5810002 1.7632415e-38
0.52518082 0.51463199 1.5823336 1.7632415e-38
0.53452861 0.51194298 1.5810002 1.7632415e-38
0.54506862 0.51043719 1.5810001 1.7632415e-38
0.56614864 0.51796573 1.5810001 1.7632415e-38
0.57548398 0.5110395 1.5810002 1.7632415e-38
0.58421719 0.51043719 1.5810001 1.7632415e-38
0.63240004 0.51043719 1.5810001 1.7632415e-38
-0.84320009 0.5239886 1.5810001 1.1056343e-39
-0.70015717 0.52248287 1.5810001 1.7632415e-38
-0.69112289 0.52248287 1.5810001 1.7632415e-38
-0.60379148 0.5239886 1.5810002 1.7632415e-38
-0.5947572 0.52511787 1.5810002 1.7632415e-38
-0.58873433 0.52549434 1.5810001 1.7632415e-38
-0.55259717 0.52248287 1.5810001 1.7632415e-38
-0.5430848 0.52459979 1.5840001 1.7632415e-38
-0.53603435 0.5239886 1.5810001 1.7632415e-38
-0.52549434 0.527502 1.5810001 1.7632415e-38
-0.48634577 0.52348673 1.5810001 1.7632415e-38
-0.47467646 0.52511787 1.5810002 1.7632415e-38
-0.44117433 0.52248287 1.5810001 1.7632415e-38
-0.43515146 0.52323574 1.5810001 1.7632415e-38
-0.42444414 0.5248251 1.5810002 1.7632415e-38
-0.41407147 0.5254944 1.5810002 1.7632415e-38
-0.40524212 0.52515489 1.5818002 1.7632415e-38
-0.39600292 0.5254944 1.5810002 1.7632415e-38
-0.38546285 0.52549434 1.5810002 1.7632415e-38
-0.3749229 0.52549434 1.5810002 1.7632415e-38
-0.36529717 0.52531058 1.585 1.7632415e-38
-0.35563335 0.5251267 1.589 1.7632415e-38
-0.34504002 0.5251267 1.5890001 1.7632415e-38
-0.33384138 0.52573204 1.5890001 1.7632415e-38
-0.32688001 0.52588338 1.5890001 1.7632415e-38
-0.31326005 0.52512676 1.589 1.7632415e-38
-0.30434614 0.52516586 1.5881112 1.7632415e-38
-0.29511777 0.5254072 1.5828462 1.7632415e-38
-0.28422743 0.52507633 1.5827779 1.7632415e-38
-0.27514386 0.5256871 1.586143 1.7632415e-38
-0.26453367 0.5255447 1.5872222 1.7632415e-38
-0.25495049 0.52611315 1.5840001 1.7632415e-38
-0.24543145 0.52549434 1.5810002 1.7632415e-38
-0.23489144 0.52549434 1.5810002 1.7632415e-38
-0.22438453 0.52511752 1.5831821 1.7632415e-38
-0.21476021 0.52527076 1.5858002 1.7632415e-38
-0.20465796 0.52584136 1.5853636 1.7632415e-38
-0.19422509 0.52537179 1.5836668 1.7632415e-38
-0.18520287 0.5254944 1.5810002 1.7632415e-38
-0.17466287 0.5254944 1.5810002 1.7632415e-38
-0.1643091 0.52608186 1.5827779 1.7632415e-38
-0.15579179 0.52583998 1.5853637 1.7632415e-38
-0.14454858 0.52549434 1.5810002 1.7632415e-38
-0.13581543 0.52489203 1.5810002 1.7632415e-38
-0.0015057144 0.52549434 1.5810001 6.2855313e-39
0.0045171431 0.52549434 1.5810002 6.6582865e-39
0.014900846 0.52612275 1.5818892 1.2605612e-38
0.027604764 0.5264982 1.5810001 1.7632415e-38
0.034631431 0.5254944 1.5810002 1.7632415e-38
0.044268001 0.52519315 1.5810002 1.7632415e-38
0.055711433 0.52248287 1.5810001 1.7632415e-38
0.061734289 0.52248287 1.5810001 1.7632415e-38
0.076456822 0.52515972 1.5810002 1.7632415e-38
0.097871438 0.5239886 1.5810001 1.7632415e-38
0.10604532 0.52463394 1.5810002 1.7632415e-38
0.11473544 0.52489203 1.5810002 1.7632415e-38
0.15625167 0.52550507 1.589 1.7632415e-38
0.16425978 0.52564287 1.5860002 1.7632415e-38
0.17349176 0.5248251 1.5810002 1.7632415e-38
0.18520288 0.52248287 1.5810001 1.7632415e-38
0.19197857 0.52474147 1.5810001 1.7632415e-38
0.20127335 0.52210003 1.5890001 1.7632415e-38
0.43515146 0.52649814 1.5810001 9.5732563e-39
0.44569147 0.52549434 1.5810001 1.7632415e-38
0.45422384 0.52449059 1.5810002 1.7632415e-38
0.46376002 0.5239886 1.5810001 1.7632415e-38
0.47430003 0.52549434 1.5810001 1.7632415e-38
0.48935717 0.52248287 1.5810001 1.7632415e-38
0.49538004 0.52248287 1.5810001 1.7632415e-38
0.56765431 0.52549434 1.5810001 1.7632415e-38
-0.85288101 0.53738666 1.585 1.9314377e-39
-0.52549434 0.53151715 1.5810001 1.7632415e-38
-0.42310572 0.53452861 1.5810001 1.7632415e-38
-0.41407147 0.53377575 1.5810001 1.7632415e-38
-0.40417677 0.53409839 1.5810002 1.7632415e-38
-0.39600289 0.53452855 1.5810002 1.7632415e-38
-0.38546288 0.53452855 1.5810002 1.7632415e-38
-0.37592667 0.53352487 1.5810002 1.7632415e-38
-0.36477384 0.53394908 1.5860002 1.7632415e-38
-0.35572535 0.53498888 1.5855718 1.7632415e-38
-0.34487745 0.53469306 1.5868669 1.7632415e-38
-0.33488059 0.53454 1.5882 1.7632415e-38
-0.32473946 0.53426951 1.5874001 1.7632415e-38
-0.31520978 0.53432697 1.5859233 1.7632415e-38
-0.30581468 0.53419375 1.5818003 1.7632415e-38
-0.29572231 0.53513092 1.5810002 1.7632415e-38
-0.28420359 0.53490502 1.5810002 1.7632415e-38
-0.27454886 0.53416699 1.583182 1.7632415e-38
-0.26358712 0.53416425 1.583182 1.7632415e-38
-0.25489494 0.53442127 1.5836668 1.7632415e-38
-0.24543145 0.53452855 1.5810002 1.7632415e-38
-0.23489146 0.53452861 1.5810002 1.7632415e-38
-0.22397502 0.53415221 1.5810002 1.7632415e-38
-0.21569358 0.53415215 1.5810002 1.7632415e-38
-0.20497666 0.53489292 1.5834616 1.7632415e-38
-0.19398549 0.53448838 1.5820003 1.7632415e-38
-0.18520288 0.53151715 1.5810001 1.7632415e-38
-0.17255487 0.5327217 1.5810002 1.7632415e-38
-0.16532743 0.533324 1.5810002 1.7632415e-38
-0.1555905 0.53352487 1.5810002 1.7632415e-38
-0.14454859 0.53452861 1.5810002 1.7632415e-38
-0.1344388 0.53538907 1.5810002 1.7632415e-38
-0.0015057144 0.53302288 1.5810001 5.9192655e-39
0.0050190482 0.53352475 1.5810002 6.8426623e-39
0.014153716 0.53422743 1.5810002 1.0130397e-38
0.027604764 0.53352475 1.5810001 1.7632415e-38
0.033878572 0.53302288 1.5810001 1.7632415e-38
0.043665718 0.53366822 1.5810002 1.7632415e-38
0.076791435 0.53151715 1.5810001 1.7632415e-38
0.10690572 0.53151715 1.5810001 1.7632415e-38
0.11594 0.53302288 1.5810001 1.7632415e-38
0.14806192 0.53553247 1.5810001 1.7632415e-38
0.1556105 0.5348146 1.5863335 1.7632415e-38
0.16380914 0.53275961 1.5821431 1.7632415e-38
0.17014572 0.53151715 1.5810001 1.7632415e-38
0.24543144 0.53754002 1.5810001 1.7632415e-38
0.42461145 0.53754002 1.5810001 1.7632415e-38
0.47731146 0.53754002 1.5810001 1.7632415e-38
0.48634577 0.53603429 1.5810002 1.7632415e-38
0.49538004 0.53603435 1.5810002 1.7632415e-38
0.50140291 0.53302288 1.5810001 1.7632415e-38
0.53452861 0.53452861 1.5810001 1.7632415e-38
0.54808003 0.53528142 1.5810001 1.7632415e-38
-0.42009431 0.54055148 1.5810001 1.7632415e-38
-0.41708288 0.54055148 1.5810001 1.7632415e-38
-0.40202573 0.54055148 1.5810001 1.7632415e-38
-0.37793431 0.54055148 1.5810001 1.7632415e-38
-0.36287716 0.54055148 1.5810001 1.7632415e-38
-0.35309005 0.54281002 1.5810001 1.7632415e-38
-0.34450743 0.54416525 1.5810002 1.7632415e-38
-0.33546463 0.54439753 1.5839999 1.7632415e-38
-0.32508111 0.54499763 1.5829998 1.7632415e-38
-0.31369048 0.54255915 1.5810002 1.7632415e-38
-0.30490717 0.54356289 1.5810002 1.7632415e-38
-0.29468983 0.5446384 1.5810001 1.7632415e-38
-0.28484046 0.54515803 1.5824547 1.7632415e-38
-0.27500165 0.54467338 1.5836667 1.7632415e-38
-0.26651144 0.54393935 1.5810002 1.7632415e-38
-0.25478762 0.54047859 1.5830002 1.7632415e-38
-0.24543145 0.54055154 1.5810001 1.7632415e-38
-0.23300931 0.54318643 1.5810002 1.7632415e-38
-0.22478166 0.5427025 1.5810002 1.7632415e-38
-0.21682286 0.54055148 1.5810001 1.7632415e-38
-0.20477715 0.54055148 1.5810001 1.7632415e-38
-0.19523953 0.54123145 1.5830002 1.7632415e-38
-0.14392859 0.54408538 1.5817275 1.7632415e-38
-0.13501239 0.54255909 1.5810002 1.7632415e-38
0.0075285719 0.54055148 1.5810001 7.8542905e-39
0.013551431 0.54055154 1.5810001 7.5755736e-39
0.15508859 0.54055148 1.5810001 1.7632415e-38
0.41106004 0.54958576 1.5810001 1.7632415e-38
0.42611718 0.54356289 1.5810001 1.7632415e-38
0.48785144 0.54055148 1.5810001 1.7632415e-38
0.49538004 0.54130429 1.5810001 1.7632415e-38
-0.78447717 0.55862004 1.5810001 3.8682732e-39
-0.36287716 0.55711436 1.5810001 1.7632415e-38
-0.35685432 0.55711436 1.5810001 1.7632415e-38
-0.33426857 0.55259717 1.5810001 1.7632415e-38
-0.32071716 0.55560863 1.5810001 1.7632415e-38
-0.30505773 0.55500633 1.5810002 1.7632415e-38
-0.29662439 0.55382413 1.5832858 1.7632415e-38
-0.28515601 0.55371255 1.5842001 1.7632415e-38
-0.27554572 0.55259717 1.5810001 1.7632415e-38
-0.23037431 0.55259717 1.5810001 1.7632415e-38
0.42310575 0.55259717 1.5810001 1.7632415e-38
-0.00152 -0.65208006 1.5960001 1.0134247e-39
0.010640001 -0.65208006 1.5960001 9.2051997e-40
0.36936003 -0.65208006 1.5960001 8.3011239e-40
0.38152003 -0.65208006 1.5960001 8.2869008e-40
-0.0038000003 -0.64524007 1.5960001 9.208759e-40
0.010640001 -0.64752007 1.5960001 8.2939913e-40
0.36936003 -0.64904004 1.5960001 8.2975366e-40
0.37468004 -0.64676005 1.5960001 6.453638e-40
0.38395202 -0.64539206 1.5960001 8.2976207e-40
0.39520001 -0.64372003 1.5960001 9.2234446e-40
0.40432003 -0.64296007 1.5960001 1.6584788e-39
-0.011653334 -0.63586676 1.5960001 1.3807764e-39
0.4220534 -0.63688004 1.5960001 2.9481316e-39
0.43016002 -0.63080007 1.5960001 9.2449966e-40
0.44536003 -0.63297153 1.5960001 1.8431979e-39
0.45410001 -0.63498008 1.596 2.1190674e-39
0.46490291 -0.63818294 1.5960001 2.4867583e-39
0.47272003 -0.63992006 1.5960001 2.3020083e-39
-0.12160001 -0.62776005 1.5960001 7.739349e-39
-0.11602668 -0.62269342 1.5960001 6.6308603e-39
-0.022800002 -0.62320006 1.5960001 1.5651747e-39
-0.01570667 -0.62370676 1.5960001 1.5651663e-39
0.43472004 -0.62776005 1.5960001 1.6584507e-39
0.45144004 -0.62776005 1.5960001 1.7513596e-39
-0.11400001 -0.61661339 1.5960001 5.1550337e-39
-0.10792001 -0.61256003 1.5960001 2.667551e-39
-0.03458 -0.61522007 1.596 1.5651691e-39
-0.027664004 -0.61620802 1.5960001 1.5651691e-39
-0.018746668 -0.61762673 1.5960001 1.6566473e-39
0.79800004 -0.61256003 1.5960001 4.6886578e-39
-0.092720009 -0.60952002 1.5960001 1.4736825e-39
-0.083600014 -0.60778296 1.5960001 1.1056245e-39
-0.074480005 -0.60648 1.596 1.1971041e-39
-0.065360002 -0.60496008 1.5960001 1.1059902e-39
-0.055371437 -0.60517722 1.5960001 1.3818568e-39
-0.044840004 -0.60876 1.5960001 1.6577235e-39
0.79597342 -0.60394669 1.5960001 4.2305523e-39
0.80256009 -0.60344005 1.5960001 4.4199756e-39
0.78584003 -0.59280002 1.5960001 4.5957377e-39
0.79192007 -0.59584004 1.5960001 4.4124226e-39
0.76608002 -0.58520001 1.5960001 4.6857711e-39
0.77672011 -0.58337611 1.5960001 4.5957349e-39
0.78584003 -0.58520001 1.596 4.6875746e-39
0.77748007 -0.57494009 1.596 4.6875732e-39
0.78381342 -0.57557338 1.5960001 4.6879361e-39
0.77758861 -0.5634858 1.5960001 4.5046154e-39
0.78280008 -0.56544006 1.5960001 4.2280314e-39
0.77368009 -0.55480003 1.5960001 4.5957419e-39
0.76760006 -0.54568005 1.5960001 4.411345e-39
0.77064008 -0.54720008 1.5960001 4.2276754e-39
0.76380002 -0.53428006 1.5960001 4.3180676e-39
0.75544012 -0.52744001 1.5960001 4.5939328e-39
0.76354671 -0.52642673 1.5960001 4.6861284e-39
0.76456004 -0.51680005 1.5960001 3.4022322e-39
0.76760006 -0.49400002 1.5960001 1.8428322e-39
0.77064008 -0.49704003 1.5960001 1.6577263e-39
0.75848007 -0.48792005 1.5960001 2.1183597e-39
0.76395202 -0.48366404 1.5960001 1.9357621e-39
0.77520001 -0.48336008 1.596 1.8428378e-39
0.78381342 -0.48386669 1.5960001 1.1967439e-39
0.81016004 -0.48184004 1.5960001 1.8421147e-39
0.76395208 -0.47758403 1.5960001 2.0275934e-39
0.77216005 -0.47880003 1.5960001 1.9361068e-39
0.83387202 -0.47515202 1.5960001 2.6715265e-39
0.84056008 -0.47576004 1.5960001 2.6711579e-39
0.83447999 -0.46542403 1.5960001 2.5796854e-39
0.83752006 -0.45752004 1.5960001 1.9350418e-39
-0.27208 -0.28728002 1.5960001 7.9950986e-39
-0.26904002 -0.27512002 1.5960001 7.7206655e-39
-0.27208 -0.266 1.5960001 7.7206655e-39
-0.27816001 -0.25384003 1.5960001 7.1689378e-39
-0.28120002 -0.23864001 1.5960001 5.1474737e-39
-0.31388003 -0.22420001 1.5960001 2.8577114e-39
0.10792001 0.22952001 1.5960001 1.7632415e-38
0.11476001 0.22876002 1.5960001 1.7632415e-38
0.12160001 0.22952001 1.5960001 1.7632415e-38
0.13832001 0.22344002 1.5960001 1.7632415e-38
0.10792001 0.23560002 1.5960001 1.7632415e-38
0.11400001 0.23560002 1.596 1.7632415e-38
0.12225144 0.23603432 1.5960001 1.7632415e-38
0.13528001 0.23712002 1.5960001 1.7632415e-38
0.14440002 0.23559999 1.596 1.7632415e-38
0.15169601 0.23620801 1.5960001 1.6071215e-38
0.10564001 0.24396001 1.5960001 1.7632415e-38
0.12572573 0.24385145 1.5960001 1.7632415e-38
0.13528003 0.24472001 1.596 1.7632415e-38
0.14440002 0.24472004 1.596 1.7632415e-38
0.15314001 0.24434002 1.596 1.5061386e-38
0.10488001 0.25536004 1.5960001 1.7632415e-38
0.13730669 0.25181335 1.5960001 1.7632415e-38
0.14592001 0.25232002 1.5960001 1.7632415e-38
0.15402667 0.25384003 1.5960001 1.7632415e-38
-0.68552005 0.26904002 1.5960001 5.3397837e-39
-0.67336005 0.26904002 1.5960001 4.6958492e-39
0.10488002 0.266 1.5960001 1.7632415e-38
-0.68400002 0.27208 1.5960001 5.1554051e-39
-0.67944002 0.27208 1.5960001 4.6962234e-39
0.10488001 0.27512002 1.5960001 1.7632415e-38
0.10488002 0.28424001 1.5960001 1.7632415e-38
-0.63384002 0.29032001 1.5960001 4.8824069e-39
-0.60587209 0.297616 1.5960001 4.9731606e-39
-0.59584004 0.29944003 1.5960001 5.249023e-39
0.10488001 0.29640001 1.5960001 1.7632415e-38
-0.60192001 0.30248001 1.5960001 4.4242986e-39
-0.06333334 0.33794671 1.5960001 1.7632415e-38
-0.054720003 0.33744004 1.596 1.7632415e-38
-0.047120005 0.33896002 1.5960001 1.7632415e-38
-0.080560006 0.34656 1.5960001 1.7632415e-38
-0.074480012 0.34656006 1.5960001 1.7632415e-38
-0.065360002 0.34504002 1.5960001 1.7632415e-38
-0.055134546 0.34476367 1.5960001 1.7632415e-38
-0.044514291 0.34590861 1.5960001 1.7632415e-38
0.086640008 0.34808001 1.5960001 1.7632415e-38
-0.080560014 0.35416001 1.5960001 1.7632415e-38
-0.074480005 0.35416004 1.596 1.7632415e-38
-0.065360002 0.35459432 1.5960001 1.7632415e-38
-0.054720007 0.35416004 1.5960001 1.7632415e-38
-0.044080008 0.35416004 1.596 1.7632415e-38
-0.038000003 0.35416001 1.5960001 1.7632415e-38
0.082080007 0.35264003 1.5960001 1.7632415e-38
0.38684002 0.35492003 1.5960001 1.3884823e-38
0.39064002 0.35720003 1.5960001 9.5901602e-39
-0.80256009 0.36936003 1.5960001 1.7632415e-38
-0.79420006 0.36708 1.5960001 1.7632415e-38
-0.78627431 0.36588576 1.5960001 1.7632415e-38
-0.77773345 0.36530671 1.5960001 1.7632415e-38
-0.10488002 0.36784002 1.5960001 1.7632415e-38
-0.097786665 0.36581334 1.5960001 1.7632415e-38
-0.081168011 0.36571202 1.5960001 1.7632415e-38
-0.074480005 0.36480004 1.5960001 1.7632415e-38
-0.065360002 0.36429337 1.596 1.7632415e-38
-0.055986665 0.3642934 1.5960001 1.7632415e-38
-0.043472003 0.36145604 1.5960001 1.7632415e-38
-0.034960002 0.36581334 1.5960001 1.6446126e-38
0.37695998 0.36480001 1.5960001 8.2180466e-39
0.38152003 0.36024001 1.5960001 7.8474676e-39
0.39368004 0.36328003 1.5960001 8.494625e-39
0.83144003 0.36632001 1.5960001 1.7632415e-38
-0.86366409 0.37604806 1.5960001 1.7632415e-38
-0.8557601 0.37645337 1.5960001 1.7632415e-38
-0.84360015 0.37848005 1.5960001 1.0763857e-38
-0.83752006 0.37544003 1.5960001 6.7331803e-39
-0.82536006 0.37544003 1.5960001 1.1429397e-38
-0.81522673 0.37544006 1.5960001 1.7632415e-38
-0.80458665 0.37493336 1.5960001 1.7632415e-38
-0.79800004 0.37240002 1.5960001 1.7632415e-38
-0.77064008 0.37240002 1.5960001 1.7632415e-38
-0.76760006 0.37848002 1.5960001 1.7632415e-38
-0.10412 0.37392002 1.5960001 1.7632415e-38
-0.096628577 0.37587437 1.5960001 1.7632415e-38
-0.084981829 0.37571639 1.5960001 1.7632415e-38
-0.074480005 0.37544003 1.596 1.7632415e-38
-0.065360002 0.37582004 1.596 1.7632415e-38
-0.059280004 0.37544003 1.5960001 1.7632415e-38
-0.033440001 0.37544006 1.5960001 5.6387367e-39
-0.028880002 0.37240002 1.5960001 4.255487e-39
0.31768003 0.37544 1.5960001 1.7632415e-38
0.32619202 0.37787199 1.5960001 1.7632415e-38
0.33744004 0.37696004 1.5960001 1.1050533e-38
0.34554669 0.37645334 1.5960001 8.678303e-39
0.36632001 0.37696001 1.5960001 8.3109583e-39
0.37544003 0.37582001 1.596 8.7712133e-39
0.38412577 0.37630859 1.5960001 9.5080595e-39
0.39064002 0.37848002 1.5960001 9.4155066e-39
0.83508807 0.37726402 1.5960001 1.7632415e-38
0.84630227 0.37611556 1.596 1.7632415e-38
0.85272014 0.37544006 1.5960001 1.7632415e-38
-0.89224005 0.38760003 1.5960001 1.7632415e-38
-0.88008004 0.38760003 1.5960001 1.7632415e-38
-0.86336005 0.38608003 1.5960001 1.7632415e-38
-0.85677338 0.38405335 1.5960001 1.7632415e-38
-0.84208006 0.38152003 1.5960001 8.0163675e-39
-0.80712003 0.38152003 1.5960001 1.7632415e-38
-0.77165341 0.38456005 1.5960001 1.7632415e-38
-0.76760006 0.38456005 1.5960001 1.7632415e-38
-0.11197335 0.38658673 1.5960001 1.7632415e-38
-0.1045 0.38494003 1.596 1.7632415e-38
-0.09576001 0.38304004 1.5960001 1.7632415e-38
-0.085728012 0.38395205 1.596 1.7632415e-38
-0.074480005 0.38456002 1.596 7.565843e-39
-0.065360002 0.38456005 1.5960001 6.2798028e-39
-0.033440001 0.38456005 1.5960001 6.2855299e-39
-0.028880002 0.38760003 1.5960001 6.28589e-39
0.077520005 0.38152003 1.5960001 1.7632415e-38
0.31666669 0.38354668 1.5960001 1.7632415e-38
0.32528001 0.38456005 1.5960001 1.7632415e-38
0.33548579 0.38369146 1.5960001 1.4890321e-38
0.34504002 0.38304004 1.5960001 9.4169359e-39
0.36328003 0.38253337 1.5960001 8.7694197e-39
0.37544003 0.38456002 1.596 9.507705e-39
0.38273603 0.38395202 1.5960001 1.024526e-38
0.39165339 0.38456005 1.5960001 9.4158709e-39
0.82840008 0.38608003 1.5960001 1.7632415e-38
0.83372003 0.38228002 1.5960001 1.7632415e-38
0.84157342 0.38253337 1.5960001 1.7632415e-38
-0.89376009 0.39216006 1.5960001 1.7632415e-38
-0.88920003 0.39064002 1.5960001 1.7632415e-38
-0.86488008 0.39064002 1.5960001 1.7632415e-38
-0.85778666 0.39469337 1.5960001 1.3969069e-38
-0.77368003 0.39672002 1.5960001 1.7632415e-38
-0.7645601 0.39773339 1.5960001 1.7632415e-38
-0.75746673 0.39773339 1.5960001 1.7632415e-38
-0.72808003 0.39976004 1.5960001 1.7632415e-38
-0.12225144 0.39672005 1.5960001 1.7632415e-38
-0.113696 0.39611205 1.596 1.7632415e-38
-0.10488001 0.39520001 1.5960001 1.7632415e-38
-0.097279996 0.39824003 1.5960001 1.7632415e-38
-0.086205728 0.39281145 1.5960001 1.1037575e-38
-0.075240009 0.39140004 1.5960001 5.6408793e-39
-0.031920001 0.39064002 1.5960001 6.1940517e-39
-0.026853336 0.39570671 1.5960001 6.469561e-39
0.077520005 0.39064002 1.5960001 1.7632415e-38
0.086640008 0.39672002 1.5960001 1.7632415e-38
0.31507432 0.39758861 1.5960001 1.7632415e-38
0.32446158 0.39461544 1.5960002 1.7632415e-38
0.33440003 0.39064002 1.5960001 1.7632415e-38
0.34200001 0.39064002 1.5960001 8.4989649e-39
0.35416004 0.39520007 1.5960001 9.418382e-39
0.36414856 0.39324579 1.5960001 1.0061237e-38
0.37544003 0.39368001 1.596 1.0153073e-38
0.38456002 0.39520001 1.596 1.0428575e-38
0.39216006 0.39570671 1.5960001 9.6002593e-39
0.6779201 0.39672005 1.5960001 1.7632415e-38
0.68501341 0.39722675 1.5960001 1.7632415e-38
0.69464004 0.39976007 1.5960001 1.7632415e-38
0.70578671 0.39722669 1.5960001 1.7632415e-38
0.71592003 0.39672002 1.596 1.7632415e-38
0.7246058 0.39672005 1.5960001 1.7632415e-38
0.73112005 0.39672005 1.5960001 1.7632415e-38
0.76760006 0.39368004 1.5960001 1.7632415e-38
0.77589101 0.39423275 1.5960001 1.7632415e-38
0.78381342 0.39520007 1.5960001 1.7632415e-38
0.79534006 0.39710003 1.596 1.7632415e-38
0.80370009 0.39634004 1.596 1.7632415e-38
0.81472009 0.39672002 1.596 1.7632415e-38
0.82566416 0.39611205 1.596 1.7632415e-38
0.83144003 0.39064002 1.5960001 1.7632415e-38
-0.77064008 0.40280002 1.5960001 1.7632415e-38
-0.76253337 0.40685338 1.5960001 1.7632415e-38
-0.75630867 0.40627435 1.5960001 1.7632415e-38
-0.74328005 0.40888003 1.5960001 1.7632415e-38
-0.12225144 0.40540573 1.5960001 1.7632415e-38
-0.11362001 0.40584004 1.596 1.7632415e-38
-0.10488001 0.40584004 1.596 1.7632415e-38
-0.09576001 0.40584004 1.596 1.7632415e-38
-0.086133346 0.40786672 1.5960001 6.006785e-39
-0.022800002 0.40432003 1.5960001 6.5621126e-39
0.089680009 0.40280002 1.5960001 1.7632415e-38
0.11704001 0.40888003 1.5960001 1.7632415e-38
0.12312001 0.40786669 1.5960001 1.7632415e-38
0.15048002 0.40432003 1.5960001 1.7632415e-38
0.30856001 0.40736002 1.5960001 1.7632415e-38
0.31464002 0.40584004 1.596 1.7632415e-38
0.32289144 0.40584001 1.5960001 1.7632415e-38
0.3637867 0.40634668 1.5960001 9.7842919e-39
0.37746668 0.40685338 1.5960001 1.0705528e-38
0.38506672 0.40634668 1.5960001 1.0797721e-38
0.39246401 0.40523204 1.5960001 1.05197e-38
0.63992006 0.40888003 1.5960001 1.7632415e-38
0.67564005 0.40622005 1.596 1.7632415e-38
0.68501341 0.40482673 1.5960001 1.7632415e-38
0.69312 0.40280002 1.5960001 1.7632415e-38
0.70604008 0.40356001 1.5960001 1.7632415e-38
0.71531206 0.40401602 1.5960001 1.7632415e-38
0.72352004 0.40280002 1.5960001 1.7632415e-38
0.76532006 0.40812004 1.5960001 1.7632415e-38
0.77672005 0.40736002 1.5960001 1.7632415e-38
0.78546005 0.40622002 1.596 1.7632415e-38
0.79435205 0.40401608 1.5960001 1.7632415e-38
0.80104005 0.40280002 1.5960001 1.7632415e-38
0.82840008 0.40280002 1.5960001 1.7632415e-38
-0.76152003 0.41344005 1.5960001 3.9705708e-39
-0.75483203 0.41374403 1.5960001 4.5183356e-39
-0.74530679 0.41529784 1.596 9.8498362e-39
-0.73416013 0.41496003 1.596 1.5534611e-38
-0.72808003 0.41496003 1.5960001 1.7632415e-38
-0.12190402 0.41435203 1.5960001 1.7632415e-38
-0.11248001 0.41496003 1.5960001 1.7632415e-38
-0.10488001 0.41452578 1.5960001 1.7632415e-38
-0.094891436 0.41452578 1.5960001 1.7632415e-38
-0.08553455 0.41468367 1.5960001 6.2833705e-39
-0.076506674 0.41496003 1.5960001 6.1014945e-39
-0.019760001 0.41800001 1.5960001 6.378094e-39
0.29944003 0.41800001 1.5960001 1.7632415e-38
0.30590004 0.41534001 1.596 1.7632415e-38
0.31507435 0.41409144 1.5960001 1.7632415e-38
0.32148004 0.41420001 1.5960001 1.7632415e-38
0.36252004 0.41572005 1.5960001 1.0429657e-38
0.38532004 0.41420004 1.5960001 1.1166506e-38
0.39722669 0.41496003 1.5960001 1.3259986e-38
0.40280002 0.41648 1.5960001 1.4354801e-38
0.61864007 0.41800001 1.5960001 1.7632415e-38
0.6247201 0.41800004 1.5960001 1.7632415e-38
0.63620454 0.41563556 1.596 1.7632415e-38
0.64600009 0.41496003 1.596 1.7632415e-38
0.67538673 0.41496003 1.596 1.7632415e-38
0.68324006 0.41496003 1.5960001 1.7632415e-38
0.70832002 0.41496003 1.5960001 1.7632415e-38
0.71505153 0.41539434 1.5960001 1.7632415e-38
0.72200006 0.41800001 1.5960001 1.7632415e-38
0.74936002 0.41800001 1.5960001 1.7632415e-38
0.75665605 0.41617605 1.5960001 1.7632415e-38
0.76273602 0.41435203 1.5960001 1.7632415e-38
0.77520007 0.41344005 1.596 1.7632415e-38
0.78584003 0.41344002 1.5960001 1.7632415e-38
-0.76152003 0.42104003 1.5960001 8.4719226e-39
-0.75468004 0.42180005 1.5960001 2.859854e-39
-0.74530673 0.4220534 1.5960001 5.7093538e-39
-0.73416007 0.42104003 1.5960001 1.3160226e-38
-0.72504002 0.42484 1.5960001 1.7632415e-38
-0.12312001 0.42104003 1.5960001 1.7632415e-38
-0.11248001 0.42408007 1.5960001 1.7632415e-38
-0.10488001 0.42180005 1.5960001 1.7632415e-38
-0.077520005 0.42104003 1.5960001 5.6430387e-39
-0.016213335 0.42408007 1.5960001 6.3773668e-39
0.29822403 0.42468801 1.5960001 1.7632415e-38
0.30508575 0.42321146 1.5960001 1.7632415e-38
0.31388003 0.42180002 1.5960001 1.7632415e-38
0.32436803 0.42347202 1.5960001 1.7632415e-38
0.33592004 0.42712003 1.5960001 1.3341376e-38
0.36480004 0.42332003 1.5960001 1.2714013e-38
0.37240002 0.42712003 1.5960001 1.7632415e-38
0.38456002 0.42484003 1.5960001 1.599307e-38
0.39824003 0.42104003 1.5960001 1.7632415e-38
0.40432003 0.42408001 1.5960001 1.7632415e-38
0.47880003 0.42408001 1.5960001 1.7632415e-38
0.48260003 0.42408001 1.5960001 1.7632415e-38
0.54872006 0.42712003 1.5960001 1.7632415e-38
0.5776 0.42560002 1.5960001 1.7632415e-38
0.58520001 0.42408001 1.5960001 1.7632415e-38
0.59280002 0.42560002 1.5960001 1.7632415e-38
0.60546672 0.42610669 1.5960001 1.7632415e-38
0.61603433 0.42494857 1.5960001 1.7632415e-38
0.62428582 0.42321146 1.5960001 1.7632415e-38
0.63586676 0.42306671 1.596 1.7632415e-38
0.64600009 0.42369998 1.596 1.7632415e-38
0.65512002 0.42560002 1.5960001 1.7632415e-38
0.66424006 0.42560005 1.5960001 1.7632415e-38
0.67457604 0.42286402 1.5960001 1.7632415e-38
0.68248004 0.42104003 1.5960001 1.7632415e-38
0.70984006 0.42560002 1.5960001 1.7632415e-38
0.71630001 0.42446002 1.596 1.7632415e-38
0.72428 0.42559999 1.5960001 1.7632415e-38
0.73340011 0.42484 1.5960001 1.7632415e-38
0.74480009 0.42357334 1.5960001 1.7632415e-38
0.75544006 0.42180005 1.5960001 1.7632415e-38
0.76152003 0.42104003 1.5960001 1.7632415e-38
-0.75240004 0.43168002 1.5960001 1.1074532e-39
-0.74936002 0.43168002 1.5960001 2.7662472e-40
-0.71693331 0.43522671 1.596 1.7632415e-38
-0.70984006 0.43928003 1.5960001 1.7632415e-38
-0.69464004 0.43928003 1.5960001 1.7632415e-38
-0.68619561 0.43590227 1.596 1.7632415e-38
-0.67596585 0.43754292 1.5960001 1.7632415e-38
-0.66221344 0.43826669 1.5960001 1.7632415e-38
-0.65512002 0.43928003 1.5960001 1.7632415e-38
-0.64397341 0.43826669 1.5960001 1.7632415e-38
-0.63282675 0.43826669 1.5960001 1.7632415e-38
-0.62472004 0.43776 1.5960001 1.7632415e-38
-0.61516571 0.43710861 1.5960001 1.7632415e-38
-0.60734862 0.43624002 1.5960001 1.7632415e-38
-0.59584004 0.43016002 1.5960001 1.7632415e-38
-0.22141336 0.43218669 1.5960001 1.7632415e-38
-0.21508002 0.43396002 1.5960001 1.7632415e-38
-0.20520002 0.43710861 1.5960001 1.7632415e-38
-0.19760001 0.43776 1.5960001 1.7632415e-38
-0.16568001 0.43624002 1.5960001 1.7632415e-38
-0.13224001 0.43016002 1.5960001 1.7632415e-38
-0.12768 0.43016002 1.5960001 1.7632415e-38
-0.11156801 0.433808 1.5960001 1.7632415e-38
-0.10670401 0.43684801 1.5960001 1.7632415e-38
-0.013680001 0.43472001 1.5960001 5.9181809e-39
0.044080004 0.43776 1.5960001 1.7632415e-38
0.050160002 0.43776003 1.5960001 1.7632415e-38
0.077520005 0.43928003 1.5960001 1.7632415e-38
0.080560006 0.43928003 1.5960001 1.7632415e-38
0.11400001 0.43928003 1.5960001 1.7632415e-38
0.15428001 0.43624002 1.5960001 1.7632415e-38
0.19912001 0.43928003 1.5960001 1.7632415e-38
0.20702402 0.43684801 1.5960001 1.7632415e-38
0.21499558 0.43590227 1.596 1.7632415e-38
0.22496001 0.43472001 1.5960002 1.7632415e-38
0.23256001 0.43624002 1.5960001 1.7632415e-38
0.27613336 0.43826669 1.5960001 1.7632415e-38
0.28424001 0.43776006 1.5960001 1.7632415e-38
0.29538667 0.43522668 1.5960001 1.7632415e-38
0.30552003 0.43745604 1.5960001 1.7632415e-38
0.32710403 0.43563205 1.596 1.7632415e-38
0.33564368 0.43430546 1.5960001 1.4982166e-38
0.36860001 0.43244004 1.5960001 1.7632415e-38
0.37476447 0.43590227 1.596 1.7632415e-38
0.38395202 0.43411204 1.596 1.7632415e-38
0.40888003 0.43472001 1.5960001 1.7632415e-38
0.46765336 0.43674669 1.5960001 1.7632415e-38
0.47272003 0.43776003 1.5960001 1.7632415e-38
0.48531437 0.43537146 1.5960001 1.7632415e-38
0.49278402 0.43563205 1.5960001 1.7632415e-38
0.50746292 0.43537149 1.5960001 1.7632415e-38
0.51500368 0.43513459 1.5960001 1.7632415e-38
0.54872006 0.43016002 1.5960001 1.7632415e-38
0.55632007 0.43016002 1.5960001 1.7632415e-38
0.57790405 0.43380806 1.5960001 1.7632415e-38
0.58368003 0.43573338 1.5960001 1.7632415e-38
0.59432006 0.43725336 1.5960001 1.7632415e-38
0.60445338 0.43455115 1.596 1.7632415e-38
0.61690295 0.43406862 1.5960001 1.7632415e-38
0.62168002 0.43168002 1.5960001 1.7632415e-38
0.63809603 0.43684801 1.5960001 1.7632415e-38
