# .PCD v0.7 - Point Cloud Data file format
VERSION 0.7
FIELDS x y z rgb
SIZE 4 4 4 4
TYPE F F F F
COUNT 1 1 1 1
WIDTH 952
HEIGHT 1
VIEWPOINT 0 0 0 1 0 0 0
POINTS 952
DATA ascii
0.076094419 0.019901512 0.029943246 3.8535708e-43
0.10918294 0.015654746 0.029446049 1.2632706e-41
0.11268598 0.018231988 0.029335817 1.0340181e-40
0.11556149 0.019979332 0.029231118 2.8744976e-40
0.12419692 0.015712604 0.029348182 2.8745116e-40
0.12658553 0.016133929 0.028967358 2.5937754e-39
0.13037439 0.017934199 0.0295341 1.0060563e-38
-0.02581843 0.021247584 0.025441796 1.4203575e-38
-0.023248758 0.021639207 0.025313815 1.3005747e-38
-0.018525934 0.021636646 0.025270713 9.5937938e-39
0.0035610835 0.020961234 0.02528864 1.3923274e-39
0.0083511379 0.021514844 0.025572019 4.6821586e-40
0.012846351 0.021961618 0.02608769 4.6785432e-40
0.017635239 0.022243964 0.02659394 1.9162616e-40
0.022507176 0.022299362 0.02703191 1.9090449e-40
0.027367372 0.022398273 0.027345043 1.9018423e-40
0.032402162 0.022417981 0.027420836 1.8982129e-40
0.037435483 0.022462962 0.027441544 1.8909962e-40
0.042503648 0.022418184 0.027449869 9.582219e-41
0.047543928 0.022406766 0.027466377 9.5100522e-41
0.052472863 0.02250883 0.027691239 9.4740388e-41
0.057312991 0.022514049 0.028152166 9.4738987e-41
0.062256534 0.022669999 0.02866609 9.4738987e-41
0.067211434 0.02275537 0.02903693 9.4018719e-41
0.071673274 0.022924827 0.029355913 1.8258919e-42
0.076331913 0.023696687 0.029620599 3.9979045e-42
0.11435664 0.020629188 0.029424071 2.8958393e-40
0.11747676 0.022543306 0.028944159 1.9632051e-40
0.12944919 0.021291506 0.029659718 1.9415551e-40
0.13303757 0.023671977 0.029529188 1.9489259e-40
0.13849548 0.0246935 0.02921981 1.4895775e-39
-0.020775374 0.025503591 0.025163896 1.4111024e-38
-0.019969407 0.025119234 0.025214842 1.0794847e-38
0.013948041 0.026588634 0.025389915 1.0213854e-39
0.017982654 0.027036641 0.025944836 2.8454346e-40
0.022560818 0.027188316 0.026629047 1.919877e-40
0.02744396 0.027329333 0.027024297 9.8710266e-41
0.032420684 0.027316835 0.027344186 1.9090449e-40
0.037449915 0.027374994 0.02746281 1.9018283e-40
0.042511079 0.027407968 0.027515639 1.8910102e-40
0.047636759 0.02739607 0.027460109 1.8801922e-40
0.052586906 0.027434614 0.027483203 9.5459254e-41
0.057464045 0.027531851 0.027736863 9.5100522e-41
0.062410798 0.027558755 0.028238598 9.5100522e-41
0.067304023 0.027642269 0.02867743 9.4380254e-41
0.072263181 0.027751599 0.029094314 9.5463458e-41
0.077023827 0.028208118 0.029335955 9.4378853e-41
0.081527308 0.028858649 0.029640786 2.5461593e-42
0.08670827 0.029112728 0.029768074 9.4028528e-41
0.11953751 0.025535971 0.0293872 1.0376615e-40
0.12255254 0.027720463 0.028984409 1.9703658e-40
0.12587376 0.029448181 0.028926533 6.5587775e-40
0.13849145 0.026090533 0.029388733 2.6856263e-39
0.14030534 0.027530838 0.029627781 7.4801536e-39
0.018925145 0.03148257 0.025560258 1.0224672e-39
0.0226861 0.032221939 0.026174294 3.7745936e-40
0.027491009 0.032337595 0.026615439 1.9234923e-40
0.032471463 0.032312963 0.027094658 2.8382179e-40
0.037517879 0.032362815 0.027312592 2.8310153e-40
0.042525318 0.032405853 0.027424965 2.8237986e-40
0.047591623 0.032420833 0.027418936 1.8946116e-40
0.052644353 0.032404613 0.027415581 9.6182324e-41
0.057504553 0.032446895 0.027484566 9.5462057e-41
0.062339935 0.032487992 0.027737103 9.5101923e-41
0.067333721 0.032553967 0.028150849 9.5464859e-41
0.072224706 0.032609593 0.028462077 9.4380254e-41
0.077220902 0.032705527 0.028893879 1.821688e-42
0.082356572 0.032866903 0.029230516 1.821688e-42
0.08738631 0.033041794 0.029476289 1.8258919e-42
0.091825001 0.032855235 0.029638436 1.8258919e-42
0.096815109 0.033771195 0.029896038 9.2935515e-41
0.1245648 0.030430818 0.029139092 1.9774984e-40
0.12736249 0.032433566 0.028906645 3.821481e-40
0.13025813 0.034735437 0.029479736 1.3355776e-41
0.019372027 0.036271069 0.025464538 1.393049e-39
0.023003411 0.037219558 0.02576334 5.6329115e-40
0.027620114 0.037398662 0.026308678 2.859868e-40
0.032484252 0.037379812 0.026592568 2.8526513e-40
0.037536677 0.037402611 0.027046978 2.8418333e-40
0.042565469 0.037422694 0.027297018 2.8346166e-40
0.04759967 0.037467152 0.02739244 2.8273999e-40
0.052630894 0.037466548 0.027383512 1.8946116e-40
0.057510868 0.037523597 0.027417639 9.6185127e-41
0.062363982 0.037437808 0.02752254 9.6546662e-41
0.067319058 0.037590921 0.027650982 9.5100522e-41
0.072361462 0.037609443 0.028060012 9.4738987e-41
0.077408612 0.037625186 0.028389094 2.1818217e-42
0.082435429 0.037665561 0.028677784 2.1818217e-42
0.087409146 0.037890177 0.029072771 1.8202867e-42
0.092309982 0.037924707 0.029287612 2.1846243e-42
0.096880518 0.038210809 0.029610328 9.4378853e-41
0.10256843 0.039895706 0.029815612 2.2056438e-42
0.12931813 0.035683073 0.029052462 1.3355776e-41
0.13230002 0.037541863 0.028957527 2.8959234e-40
0.1355969 0.039709482 0.028847085 4.7864572e-40
0.023693597 0.04197643 0.025446793 7.4840689e-40
0.027739584 0.042442966 0.025949607 2.8670707e-40
0.032457963 0.042407501 0.026250673 2.8634833e-40
0.037518915 0.042352475 0.026627799 2.8562667e-40
0.042603135 0.042491693 0.026988685 2.8454486e-40
0.047618046 0.042490192 0.027346255 2.8382179e-40
0.052618671 0.042548012 0.027333273 2.8274139e-40
0.057557203 0.042550385 0.027409876 2.8274279e-40
0.062421333 0.042535316 0.027380332 1.8910102e-40
0.067350797 0.04257641 0.027437394 9.582219e-41
0.072381124 0.042578772 0.027624706 9.5100522e-41
0.07738594 0.04266521 0.027838273 2.544758e-42
0.082488641 0.042702109 0.028167319 2.183223e-42
0.087497711 0.042698234 0.028492073 1.8230893e-42
0.092339411 0.042784952 0.02885944 1.821688e-42
0.097242706 0.042791791 0.029284611 1.8244906e-42
0.10229804 0.043186709 0.029523626 9.402012e-41
0.1070919 0.043647502 0.029807935 1.8202867e-42
0.11393876 0.044980492 0.02999552 9.3302656e-41
0.13371731 0.040568415 0.029600887 1.2278177e-41
0.13727869 0.042504482 0.029065469 4.7470107e-40
0.14021823 0.044874262 0.028913856 1.0268855e-40
0.019821782 0.048254736 0.025115518 7.4805376e-40
0.023636915 0.047690276 0.025435247 1.9487718e-40
0.02776327 0.047495767 0.025740238 2.870714e-40
0.032529503 0.047455516 0.02599461 2.8779027e-40
0.037632778 0.04740148 0.026249845 3.789027e-40
0.042613264 0.047486249 0.026697014 4.7001793e-40
0.047641955 0.047556147 0.027039085 2.849036e-40
0.052646525 0.047562893 0.027294062 2.8454486e-40
0.05757536 0.047636956 0.027372178 2.8346166e-40
0.062411305 0.047627132 0.027426956 2.8237846e-40
0.067354739 0.047616728 0.027351767 1.8874089e-40
0.072404742 0.047626458 0.027396528 9.5823592e-41
0.077414028 0.047631145 0.027516048 9.4741789e-41
0.082490973 0.047667924 0.027721347 2.544758e-42
0.087506369 0.047685809 0.028023416 2.183223e-42
0.092429064 0.047742844 0.028290639 1.821688e-42
0.097488925 0.047868673 0.028687684 1.8230893e-42
0.1023141 0.04780934 0.029099647 1.8230893e-42
0.10720661 0.048069503 0.029395947 2.183223e-42
0.11182101 0.048350591 0.029674226 1.1028219e-42
0.11624116 0.04909065 0.029623991 7.4549078e-43
0.13933727 0.046622992 0.029361671 1.0267734e-40
0.14143322 0.048008814 0.029047819 1.0339901e-40
0.018771291 0.054167833 0.025039371 1.474166e-42
0.023286974 0.053072125 0.025678478 1.3012233e-39
0.027746672 0.052602336 0.025680786 1.9523591e-40
0.032538313 0.052503016 0.025853299 4.7218153e-40
0.037553634 0.052389726 0.026032252 3.7962296e-40
0.042650554 0.052446861 0.026412029 3.789027e-40
0.047662202 0.052460507 0.026688285 3.7854396e-40
0.052681703 0.052509949 0.027039303 1.930695e-40
0.057575393 0.052647881 0.027253181 2.8454346e-40
0.062409863 0.052629992 0.027408304 2.8382179e-40
0.067352407 0.052625153 0.027346792 1.9054436e-40
0.07240627 0.052641634 0.027386397 1.8910243e-40
0.077453233 0.0526166 0.027387409 1.8801922e-40
0.082507491 0.052660018 0.027491082 9.5100522e-41
0.087545447 0.05266064 0.02758914 9.4738987e-41
0.092543922 0.05270623 0.027843164 2.183223e-42
0.09744978 0.052751258 0.028166456 2.1818217e-42
0.10228626 0.052811537 0.028574616 1.821688e-42
0.10723347 0.052794222 0.028933546 1.4643569e-42
0.1122039 0.053104896 0.02920894 1.8244906e-42
0.11677957 0.05344801 0.029424423 1.4657582e-42
0.12085582 0.053956147 0.029654497 1.460153e-42
0.12902561 0.052570481 0.029876985 7.4689208e-43
0.13135676 0.054150291 0.02992969 1.1042232e-42
0.1430358 0.052582536 0.029220684 1.930709e-40
0.14559415 0.054288812 0.029161457 1.4874125e-39
0.019058317 0.057342898 0.025280673 4.0616888e-39
0.022971567 0.057639208 0.025813248 2.4958093e-39
0.027552271 0.057594486 0.025948051 1.3923414e-39
0.032464691 0.057643339 0.02589383 4.707466e-40
0.037616823 0.057367183 0.025923252 3.799873e-40
0.042573739 0.057437591 0.026046503 2.8742874e-40
0.047726285 0.057435304 0.026305195 2.8670847e-40
0.052703466 0.05747759 0.026594548 1.941499e-40
0.057579067 0.057421643 0.026962422 3.7746076e-40
0.062475476 0.057490598 0.027193995 2.849036e-40
0.067434408 0.057518121 0.027386826 2.8382179e-40
0.072367027 0.057589315 0.027429782 2.8310012e-40
0.077482186 0.057572197 0.027374193 1.8946256e-40
0.082534432 0.05758854 0.027379066 9.6183725e-41
0.087559022 0.057541974 0.027418369 9.5100522e-41
0.092558026 0.057582404 0.027474053 2.9048917e-42
0.097469144 0.057594541 0.027764784 2.5433567e-42
0.1023073 0.057638165 0.0281105 2.5433567e-42
0.10729507 0.05771957 0.028425777 1.8230893e-42
0.11232688 0.057707399 0.02872688 2.1874269e-42
0.11733112 0.057857409 0.028990671 2.1860256e-42
0.12215763 0.05811549 0.029432632 1.4615543e-42
0.12749991 0.058212135 0.029531762 1.460153e-42
0.13209631 0.058181245 0.02985456 1.4615543e-42
0.14359707 0.057754621 0.02891509 9.9076005e-41
0.14563362 0.057676073 0.028462121 5.625849e-40
0.01990759 0.060649008 0.025750618 9.591633e-39
0.023242049 0.06193994 0.025935141 5.7212158e-39
0.027553134 0.062320471 0.026066823 2.5880021e-39
0.032453809 0.06236713 0.025973629 2.2213804e-39
0.037478428 0.062391214 0.025861079 5.6293943e-40
0.042659491 0.062450908 0.025884878 2.870714e-40
0.047609508 0.062384438 0.025973661 1.9523311e-40
0.052698992 0.062358204 0.026257629 3.7926423e-40
0.057651196 0.062335946 0.026677694 4.7109973e-40
0.062491968 0.062446702 0.02695344 4.7001652e-40
0.067378514 0.062396757 0.02719157 3.7709923e-40
0.072419986 0.062432226 0.027333774 2.8418193e-40
0.077504337 0.062424727 0.027399661 1.9090449e-40
0.08255928 0.062436901 0.027412556 1.8982269e-40
0.087627202 0.062440436 0.027352683 9.6183725e-41
0.092626281 0.062455758 0.027409624 9.5462057e-41
0.097504653 0.062468227 0.027411124 9.4740388e-41
0.10242873 0.062571794 0.027677009 2.544758e-42
0.10734826 0.062573507 0.027929958 9.5103324e-41
0.11230979 0.062575474 0.028286379 2.1874269e-42
0.11734444 0.062700689 0.028567713 1.8230893e-42
0.12240849 0.062752791 0.028950414 2.1846243e-42
0.12713914 0.062842704 0.029250335 1.821688e-42
0.13247049 0.062465012 0.029497907 1.1042232e-42
0.13775417 0.063571736 0.029502846 1.4657582e-42
0.14314297 0.062853701 0.028652811 5.7943691e-42
0.14550951 0.062133998 0.028234286 6.5370573e-40
0.024028854 0.065755948 0.026137028 9.4094081e-39
0.027751682 0.066861309 0.026120573 4.890739e-39
0.032608218 0.067594469 0.025881579 2.5880007e-39
0.037558366 0.067495979 0.025844857 1.1153915e-39
0.042646829 0.067462787 0.025867276 6.5513646e-40
0.047621563 0.067402266 0.02599358 2.8779167e-40
0.052651562 0.06740313 0.026169559 5.6437576e-40
0.057624891 0.067336798 0.02644266 7.4840548e-40
0.062485646 0.067393385 0.026752435 5.6365549e-40
0.067428567 0.06728597 0.02686891 2.859868e-40
0.072428957 0.067365043 0.027198484 1.930681e-40
0.077491738 0.067336604 0.027289722 1.919877e-40
0.082491226 0.067377672 0.027400348 1.909059e-40
0.087618366 0.067383863 0.027431468 1.8982269e-40
0.09265466 0.067362495 0.027371587 1.8837936e-40
0.097556017 0.067356862 0.027361881 9.5463458e-41
0.10239717 0.067386039 0.027458189 9.6185127e-41
0.10736553 0.067460649 0.027633799 2.9076943e-42
0.11237697 0.067516148 0.027849689 2.5433567e-42
0.11739978 0.067527376 0.028143032 1.8230893e-42
0.12234178 0.06758751 0.028450692 1.8230893e-42
0.1274922 0.067654841 0.02882163 2.1846243e-42
0.13252445 0.06774576 0.028926009 2.1846243e-42
0.13752967 0.067761734 0.029009441 2.544758e-42
0.14259349 0.06755539 0.028204514 2.816666e-40
0.14544487 0.065933175 0.028020903 9.310185e-40
0.029858872 0.07097742 0.026777979 2.8610185e-39
0.032910138 0.071666121 0.026097666 4.9832962e-39
0.037715103 0.072413117 0.025910381 3.4174026e-39
0.042548571 0.072500721 0.02594124 1.2990653e-39
0.047581088 0.072463684 0.025942853 1.1157573e-39
0.052669346 0.072427481 0.026014583 3.7926844e-40
0.057605509 0.072410792 0.026347196 5.6437576e-40
0.062446859 0.072324291 0.026481021 5.6437576e-40
0.067502461 0.072357289 0.026650149 2.8670847e-40
0.07251481 0.072305292 0.02695005 2.859854e-40
0.077511363 0.072385415 0.027171487 2.8526373e-40
0.082545228 0.072374605 0.027276738 2.8382319e-40
0.087620787 0.072389461 0.027382534 2.8310153e-40
0.09266258 0.072387442 0.027390542 1.8982269e-40
0.097524896 0.072413847 0.027406855 1.8946396e-40
0.10236333 0.072377935 0.02737904 9.5823592e-41
0.10735303 0.07245978 0.02744679 9.5460655e-41
0.11243374 0.072480097 0.027491145 2.5461593e-42
0.11739026 0.072486937 0.027612122 2.1846243e-42
0.12248205 0.07251367 0.02792833 2.183223e-42
0.12754317 0.072591573 0.028145388 2.1860256e-42
0.13254932 0.072634608 0.028206216 3.267828e-42
0.137602 0.07266859 0.028082937 9.5473267e-41
0.1413969 0.071815714 0.027537312 1.2057935e-39
0.038315143 0.076731466 0.026328033 6.4584235e-39
0.042899903 0.077259384 0.026286654 4.1549691e-39
0.047460377 0.07745938 0.026137816 2.3128585e-39
0.052408997 0.077376723 0.026019281 9.3172335e-40
0.057584733 0.077481695 0.026071409 2.8743154e-40
0.062536299 0.077415489 0.026391512 1.9559464e-40
0.067399673 0.077424474 0.026448607 1.9559324e-40
0.072532244 0.077379726 0.026546361 2.870672e-40
0.077553198 0.077325687 0.026953725 2.859868e-40
0.082582876 0.077464759 0.027111311 2.849036e-40
0.087619759 0.077451229 0.027295215 3.7637896e-40
0.09262567 0.07746613 0.02741828 2.8382319e-40
0.097565256 0.077448435 0.027363479 9.7987196e-41
0.10243233 0.077455632 0.027379762 9.6903993e-41
0.10738544 0.077478066 0.027414603 9.5824993e-41
0.11240013 0.077508658 0.02736773 9.5103324e-41
0.11745801 0.077498183 0.027404599 2.906293e-42
0.12250724 0.077543318 0.027512802 2.5461593e-42
0.12755926 0.077545322 0.02767021 1.8766329e-40
0.13259134 0.077592857 0.027542157 8.3339984e-40
0.13692918 0.076733336 0.027377671 1.9429942e-39
0.14048241 0.075518094 0.026953656 3.6979818e-39
0.038879357 0.080236979 0.027033597 1.6707654e-39
0.043547094 0.081900917 0.026877159 8.4867301e-39
0.047855657 0.082349755 0.026297489 5.1687623e-39
0.052582081 0.082487747 0.026122702 1.6678493e-39
0.057517312 0.082563601 0.026007397 9.3172195e-40
0.062478058 0.082404092 0.026110308 1.9451844e-40
0.06753961 0.082353786 0.02631915 3.7962437e-40
0.072527945 0.082493946 0.026536554 1.9523451e-40
0.077530786 0.082443126 0.026839629 2.870672e-40
0.082616873 0.082457595 0.027019501 3.7854256e-40
0.087613069 0.082513519 0.027205508 3.7782089e-40
0.092637166 0.08253327 0.02730947 2.8454346e-40
0.097559147 0.082520582 0.027375313 1.9126603e-40
0.10243341 0.082575195 0.027340582 9.7987196e-41
0.10736565 0.082525834 0.027418707 9.6546662e-41
0.11241192 0.08255934 0.027385443 3.9880954e-42
0.11748116 0.08255209 0.02746948 9.5826394e-41
0.12254113 0.082535811 0.027428208 5.5680875e-40
0.12746532 0.082376741 0.027349865 2.2174203e-39
0.13169754 0.081245303 0.027150061 3.1418961e-39
0.13549241 0.080184415 0.025682947 7.3822169e-39
0.048916169 0.085921735 0.026669199 8.1197399e-39
0.052819386 0.087080717 0.026375711 5.0772855e-39
0.057496753 0.087363489 0.026125677 2.0362702e-39
0.062293842 0.087617792 0.026097247 1.0239176e-39
0.067423053 0.087463602 0.026065243 2.8707e-40
0.072575115 0.087516338 0.026405303 1.9487297e-40
0.077635139 0.087485209 0.02662483 4.7217873e-40
0.082586743 0.087524369 0.026802771 3.799831e-40
0.087686546 0.087521948 0.026979642 2.8670707e-40
0.092602625 0.087594979 0.027237533 2.8562526e-40
0.097574115 0.087555088 0.027329164 1.9234923e-40
0.10241739 0.087631434 0.027293965 9.90704e-41
0.10736372 0.087589137 0.02735303 9.7988598e-41
0.1123755 0.087578222 0.027343176 9.7631267e-41
0.11744883 0.087522104 0.027278278 1.2029054e-39
0.12219673 0.087006807 0.027192844 4.4308413e-39
0.12612413 0.085867777 0.026975797 6.4605829e-39
0.053580027 0.090486899 0.02640806 9.2257301e-39
0.058093343 0.091770045 0.026427364 3.7865467e-39
0.06263385 0.092441745 0.026264779 2.5894426e-39
0.067445576 0.092531718 0.026248107 1.0231973e-39
0.07260453 0.092425324 0.026081901 5.6329816e-40
0.077629887 0.092428267 0.026402993 1.9559604e-40
0.08260031 0.09257067 0.026864395 2.8779167e-40
0.087625913 0.092598885 0.026986929 1.9523311e-40
0.092637047 0.092577584 0.027281446 2.8670847e-40
0.097519986 0.092530504 0.027257608 1.930709e-40
0.10240256 0.092625283 0.027337076 1.919905e-40
0.1074107 0.092523411 0.02732322 3.7494683e-40
0.11231363 0.092438929 0.027137719 2.7709612e-39
0.11696026 0.091816679 0.0268883 8.2123068e-39
0.12070353 0.090544723 0.026670599 1.125548e-38
0.058835819 0.09621948 0.026756296 8.4863742e-39
0.063479587 0.096817791 0.026279667 4.1556907e-39
0.067796402 0.097045332 0.026386049 3.8801814e-39
0.072504543 0.097541392 0.026347967 1.8529594e-39
0.077422276 0.097672507 0.026311144 1.0235602e-39
0.082643114 0.097479045 0.026622757 3.7926703e-40
0.087576434 0.097479634 0.027137792 7.4733069e-40
0.092624731 0.097471997 0.027262086 3.7818803e-40
0.097556107 0.097407691 0.027251324 5.6185903e-40
0.10241458 0.097450644 0.027267626 1.2965514e-39
0.10728953 0.097118288 0.027183941 6.4595109e-39
0.11177677 0.096502483 0.026498383 1.3284506e-38
0.11514566 0.095562696 0.026514523 8.5872214e-39
0.063157037 0.10149976 0.027227405 3.4145356e-39
0.068470448 0.10091249 0.026938643 3.4170579e-39
0.073144391 0.10163488 0.026766626 3.0507837e-39
0.077515811 0.10213771 0.026383303 1.9451564e-39
0.082640052 0.102222 0.026429022 1.8522419e-39
0.087700449 0.10237938 0.026700879 1.2994283e-39
0.092614844 0.10231099 0.027017729 1.0221239e-39
0.097423583 0.10220092 0.027101021 3.0482768e-39
0.10209303 0.10195525 0.026798161 9.1339114e-39
0.10621298 0.10078248 0.026096132 1.3560376e-38
0.078102492 0.10604208 0.025897367 2.2217433e-39
0.082837768 0.10663647 0.025927778 2.3146592e-39
0.087870382 0.10646547 0.026364664 3.6032442e-39
0.092387788 0.10655108 0.026667971 5.8145044e-39
0.096776351 0.10588048 0.026247611 1.0886343e-38
0.10062335 0.10554916 0.025538119 1.7341113e-38
0.083953425 0.11053868 0.025212407 9.7641076e-41
0.086984575 0.11108117 0.02525088 5.2598915e-39
0.091446579 0.110343 0.025222324 1.6325887e-38
-0.015675811 -0.10555179 0.031659145 2.892294e-40
-0.014458681 -0.10561918 0.031541467 3.8357883e-40
-0.045484815 -0.10034257 0.03183832 9.2279035e-39
-0.041907568 -0.1008674 0.032221377 5.72518e-39
-0.037324861 -0.10126955 0.03245189 4.2493311e-39
-0.032525815 -0.10131388 0.032617871 5.1712846e-39
-0.027627483 -0.10175566 0.0332946 4.1567711e-39
-0.022674136 -0.10176463 0.033659793 1.0203162e-39
-0.01748383 -0.10227137 0.033709217 7.4193709e-40
-0.012715019 -0.10215878 0.032543104 1.113951e-39
-0.0094772195 -0.10052754 0.03184519 1.6681982e-39
-0.05111187 -0.096106842 0.032358151 7.4758208e-39
-0.047311027 -0.097219102 0.032390714 4.8006972e-39
-0.042561546 -0.097525656 0.032369137 1.2029082e-39
-0.037463181 -0.097534008 0.032473542 1.8839057e-40
-0.032384995 -0.097589985 0.032524213 2.8094493e-40
-0.027448472 -0.097559735 0.032554898 1.2972591e-39
-0.022549495 -0.097327441 0.03279338 3.6035889e-39
-0.01774238 -0.097322516 0.033235505 1.6642353e-39
-0.012524188 -0.097422548 0.033164755 3.7242169e-40
-0.0076100831 -0.097371213 0.032401651 7.4480835e-40
-0.0042615095 -0.095829561 0.031773861 1.4859663e-39
-0.055571504 -0.090682693 0.032125566 6.2776364e-39
-0.05226 -0.09238258 0.032295328 5.7219346e-39
-0.047570348 -0.092637599 0.032386106 9.2559687e-40
-0.042579181 -0.092663489 0.032564495 3.990898e-42
-0.037527174 -0.092619471 0.032785732 3.6265604e-42
-0.032444287 -0.092673376 0.032890521 3.2650254e-42
-0.027380846 -0.092714518 0.032961529 2.9076943e-42
-0.022325341 -0.092736527 0.032727968 5.5825068e-40
-0.01758237 -0.092470914 0.03267245 2.2206531e-39
-0.012847177 -0.092447244 0.033143871 1.6649542e-39
-0.0076024891 -0.092406355 0.033475988 4.6425719e-40
-0.0026923122 -0.092377312 0.032450374 1.483451e-39
0.0010276581 -0.090971373 0.031977024 2.591581e-39
-0.056582611 -0.087072521 0.032103781 7.6598421e-39
-0.052528832 -0.087600395 0.032347936 3.692549e-39
-0.047634281 -0.087623112 0.032465503 9.6908197e-41
-0.042549428 -0.087591931 0.032572612 4.7097641e-42
-0.037526332 -0.087548226 0.032749549 4.7069615e-42
-0.032500684 -0.087588325 0.03298416 4.7083628e-42
-0.027443342 -0.08759784 0.033264767 4.7055602e-42
-0.022443397 -0.087577879 0.033422042 3.6265604e-42
-0.017488133 -0.087843716 0.033099916 1.8838496e-40
-0.012556604 -0.087592654 0.03268373 1.6667604e-39
-0.0078226533 -0.087339833 0.032811813 2.4035996e-39
-0.0024556913 -0.087479465 0.033358127 1.2029026e-39
0.0023614774 -0.0873053 0.032461088 1.2997786e-39
0.0056966674 -0.086001232 0.03219907 2.6826976e-39
-0.060673524 -0.081151776 0.03135848 1.1994486e-38
-0.057344314 -0.082443111 0.032131735 7.6594806e-39
-0.052583963 -0.082535222 0.032326069 4.6569772e-40
-0.047607575 -0.082561009 0.032430939 5.0727004e-42
-0.042552851 -0.082524747 0.032470953 4.7097641e-42
-0.037484288 -0.082500592 0.032632835 5.0698978e-42
-0.032496687 -0.082531214 0.032811485 5.4286303e-42
-0.027461842 -0.082509533 0.033172496 5.4286303e-42
-0.022470592 -0.08251366 0.033393897 5.0656939e-42
-0.017560543 -0.08252506 0.033578914 3.6251591e-42
-0.012522857 -0.082733542 0.033367008 3.629363e-42
-0.0074763889 -0.082643546 0.032807469 1.2968989e-39
-0.0026911278 -0.082267933 0.032718398 2.8649435e-39
0.0026247872 -0.082530968 0.032938857 1.2032628e-39
0.0071666851 -0.082144864 0.032420568 1.3912596e-39
0.011104521 -0.08090084 0.032139435 1.9451354e-39
-0.06139629 -0.077017866 0.031526487 1.3376693e-38
-0.05740549 -0.077451736 0.032183129 4.1546089e-39
-0.052599531 -0.077464193 0.032359194 2.8130226e-40
-0.047593415 -0.077445902 0.032402672 9.6906795e-41
-0.042522747 -0.077468403 0.032421686 9.6906795e-41
-0.037484206 -0.077443376 0.032462526 9.7265528e-41
-0.032434683 -0.077450417 0.032665446 9.7625661e-41
-0.027422704 -0.077442504 0.033042651 5.0698978e-42
-0.022539141 -0.077422619 0.033269249 5.427229e-42
-0.017631192 -0.077430911 0.033454724 9.7261324e-41
-0.012642098 -0.077454045 0.033618268 4.3440252e-42
-0.0074877539 -0.077567205 0.033469561 3.2650254e-42
-0.0023582021 -0.077654637 0.032876782 7.4300208e-40
0.0024579205 -0.077352129 0.032632984 2.4965239e-39
0.0075095515 -0.077406086 0.032748889 2.4943631e-39
0.012398276 -0.077233501 0.032434963 1.2983395e-39
0.016241366 -0.075890772 0.032420825 1.6692688e-39
-0.066115916 -0.071557865 0.030694745 1.4760353e-38
-0.062048599 -0.072305433 0.031917043 9.3182873e-39
-0.057521354 -0.07246688 0.032247327 1.6642437e-39
-0.052655991 -0.072422229 0.032317147 2.8130086e-40
-0.047610983 -0.072402209 0.032376111 9.6908197e-41
-0.042544566 -0.072395101 0.032382164 9.726833e-41
-0.037458185 -0.072398007 0.032429982 9.7627063e-41
-0.032447498 -0.072386563 0.032516066 9.7627063e-41
-0.027428543 -0.072347574 0.032677684 9.7627063e-41
-0.022549924 -0.072336979 0.032966614 9.7265528e-41
-0.017607221 -0.072369084 0.033219185 9.762426e-41
-0.012649415 -0.072319426 0.033355627 9.7261324e-41
-0.0076242825 -0.072376296 0.03346578 4.3440252e-42
-0.0025258914 -0.072487526 0.033501603 3.2622228e-42
0.0026913378 -0.072618254 0.033137653 3.7241749e-40
0.0076200925 -0.072509058 0.032702636 2.1273799e-39
0.012393276 -0.072419107 0.032782055 2.0341024e-39
0.017346589 -0.072333582 0.032528087 1.113951e-39
0.021029968 -0.071072042 0.031999853 1.3001345e-39
-0.066424184 -0.067037605 0.031253841 1.3006833e-38
-0.062254217 -0.067473151 0.031931896 4.9840109e-39
-0.057476215 -0.067438781 0.032185778 7.4156434e-40
-0.05261033 -0.067409664 0.032261908 2.8094072e-40
-0.047581628 -0.06735184 0.032370545 1.8910383e-40
-0.042514551 -0.067368388 0.032389432 1.8910383e-40
-0.037486535 -0.067371979 0.032405149 1.8946536e-40
-0.03236641 -0.067351669 0.032454297 1.9018563e-40
-0.027391678 -0.067343198 0.032479178 9.7627063e-41
-0.022428168 -0.067269847 0.032675073 1.8982269e-40
-0.01755316 -0.067325011 0.032927107 9.762426e-41
-0.012612975 -0.067321956 0.033180337 9.7622859e-41
-0.0076576495 -0.067338884 0.033318724 9.7261324e-41
-0.0025787421 -0.067340039 0.03342988 5.0642927e-42
0.0025322421 -0.067434415 0.033510212 3.6237578e-42
0.0075831166 -0.067501694 0.033374719 9.5464859e-41
0.01269834 -0.0676663 0.032952007 1.5734844e-39
0.017550791 -0.067274682 0.032731168 2.3110523e-39
0.022351857 -0.067368634 0.032352507 2.1281029e-39
0.026111688 -0.066076256 0.032016411 2.0387744e-39
-0.070437036 -0.062228628 0.030324398 1.595745e-38
-0.067168534 -0.0626425 0.030955259 9.870745e-39
-0.062195607 -0.062503353 0.031665016 2.1248631e-39
-0.057458844 -0.062506415 0.03214835 5.5753042e-40
-0.052603804 -0.062468104 0.032212172 4.6569352e-40
-0.047581945 -0.062409468 0.032270577 1.8946536e-40
-0.04254571 -0.062396005 0.03242515 1.8946396e-40
-0.037465841 -0.062463671 0.03242664 2.8274139e-40
-0.032384712 -0.06240423 0.032411732 1.8982409e-40
-0.027373774 -0.062338796 0.032448515 1.9018283e-40
-0.022447295 -0.062444445 0.032464869 1.8982269e-40
-0.017614407 -0.062387742 0.032516524 1.9018283e-40
-0.012724212 -0.062406365 0.032877561 9.762426e-41
-0.0076226555 -0.062391009 0.033038136 9.7622859e-41
-0.0025845333 -0.062444791 0.03317745 9.7259923e-41
0.002479566 -0.062442604 0.033337176 5.0642927e-42
0.007595425 -0.062440995 0.033473827 3.9838915e-42
0.012597025 -0.062517561 0.033487666 3.2664267e-42
0.017753106 -0.062655695 0.033078007 8.3483617e-40
0.022464076 -0.062511906 0.032622196 2.2192168e-39
0.027314179 -0.062211927 0.032379501 2.4054101e-39
0.031307481 -0.061153781 0.031859569 2.9592971e-39
-0.071258739 -0.057328556 0.030471826 1.651026e-38
-0.066987082 -0.057470329 0.031124268 5.8137729e-39
-0.062218133 -0.057497062 0.03150421 1.2021838e-39
-0.057420839 -0.057664603 0.031877521 1.0188673e-39
-0.052526962 -0.057609938 0.031891998 4.6605365e-40
-0.047496654 -0.057636108 0.032072455 2.8202253e-40
-0.042545293 -0.0575854 0.032216117 2.8238126e-40
-0.037463512 -0.057591815 0.032361124 2.8202113e-40
-0.032409754 -0.057571139 0.032375418 1.8982269e-40
-0.02737679 -0.057510473 0.032420017 1.8982409e-40
-0.022462981 -0.057568789 0.03242097 1.9018423e-40
-0.01759512 -0.057587143 0.032481741 1.8982269e-40
-0.012682371 -0.057525989 0.032599926 1.8982269e-40
-0.0076131299 -0.057438519 0.03272967 9.7622859e-41
-0.0026098858 -0.057528771 0.032926284 9.7261324e-41
0.0024730698 -0.057501946 0.033199381 9.7261324e-41
0.0074801943 -0.057593793 0.033356603 5.0642927e-42
0.012508399 -0.057561059 0.033476017 4.3426239e-42
0.017467422 -0.057496343 0.033539731 3.6223565e-42
0.022528267 -0.057785295 0.033366181 3.7277622e-40
0.027475979 -0.057643816 0.03271345 1.2972605e-39
0.032319203 -0.057404079 0.032377895 2.6816396e-39
0.036369465 -0.05640427 0.032108132 2.6819928e-39
-0.071347915 -0.052463748 0.030539792 7.3807427e-39
-0.067194492 -0.052557893 0.031086331 3.9687771e-39
-0.062456746 -0.052637123 0.031334575 1.4798468e-39
-0.057410352 -0.052782975 0.031263918 1.0192302e-39
-0.052503526 -0.05278739 0.031352244 3.7421816e-40
-0.047548417 -0.052744266 0.031636529 5.5896815e-40
-0.042448889 -0.052701429 0.031790163 2.8238406e-40
-0.037453171 -0.052702393 0.032114383 2.8129946e-40
-0.032392982 -0.052637041 0.032355569 2.8165959e-40
-0.027322993 -0.052602861 0.032398712 2.8201832e-40
-0.022400001 -0.052613471 0.032425895 1.8982269e-40
-0.017525332 -0.052639198 0.032451872 1.9018423e-40
-0.012646695 -0.052588843 0.032464024 1.8982129e-40
-0.0076250914 -0.052589789 0.032544933 9.7987196e-41
-0.002606977 -0.052566934 0.032700557 9.762426e-41
0.0024258199 -0.052546341 0.032997798 9.690119e-41
0.007567808 -0.052517448 0.033205677 5.0656939e-42
0.012555636 -0.052559026 0.033360176 4.7041589e-42
0.017499216 -0.052525558 0.03351381 4.3426239e-42
0.02241024 -0.052603912 0.033502217 3.6237578e-42
0.027520062 -0.052647624 0.033496663 9.5826394e-41
0.032551091 -0.052804656 0.032878242 9.2811781e-40
0.037323367 -0.052477736 0.032352496 2.221379e-39
0.041505489 -0.051520083 0.032304883 3.4209983e-39
0.04534499 -0.05014817 0.031115187 1.4023887e-38
-0.071250647 -0.04769272 0.030498989 5.9052483e-39
-0.067397848 -0.04771395 0.030646471 1.5716894e-39
-0.062361907 -0.04795989 0.030714197 2.3110438e-39
-0.057533331 -0.047952201 0.030815875 4.6605505e-40
-0.052495025 -0.047723934 0.0309256 3.7457689e-40
-0.047406923 -0.047749549 0.031067552 3.7457829e-40
-0.042462796 -0.047726948 0.031360198 2.8130086e-40
-0.03739889 -0.04769123 0.031685121 1.8874369e-40
-0.032366406 -0.047713231 0.032033313 3.7385522e-40
-0.027352152 -0.04764691 0.032208093 3.7385382e-40
-0.022396937 -0.047578022 0.032405138 1.8946396e-40
-0.017570972 -0.047618788 0.032386262 1.9018283e-40
-0.012657298 -0.047630537 0.032424476 1.9018423e-40
-0.0076170792 -0.047572892 0.032498106 9.7987196e-41
-0.0025480634 -0.047585059 0.032516442 9.7627063e-41
0.0024908967 -0.047545671 0.032737948 9.7265528e-41
0.0075304643 -0.047504578 0.033014942 5.0656939e-42
0.012539571 -0.047535881 0.03325101 5.0656939e-42
0.017437281 -0.047490291 0.033342153 4.3426239e-42
0.022468209 -0.04751154 0.033419482 3.9824902e-42
0.027357822 -0.047584374 0.033518732 3.9824902e-42
0.032368824 -0.047638796 0.03360096 3.267828e-42
0.037694599 -0.047933225 0.033079647 3.7530136e-40
0.042535689 -0.047512744 0.032457266 1.6685625e-39
0.046623338 -0.046584401 0.032270283 2.776345e-39
-0.071637094 -0.042497501 0.030195443 1.755017e-39
-0.067753404 -0.044100419 0.030288674 1.2029054e-39
-0.062160324 -0.043521568 0.030263796 5.353508e-39
-0.057309482 -0.043269981 0.030407051 3.7602163e-40
-0.052244414 -0.042957895 0.030512687 3.7385662e-40
-0.047337335 -0.042864706 0.03069333 3.7385662e-40
-0.042372402 -0.042719882 0.030930396 1.8802202e-40
-0.037311573 -0.042709097 0.031273961 2.8057919e-40
-0.032297995 -0.042671219 0.031546395 4.6569072e-40
-0.027328905 -0.042669408 0.031841855 2.8129946e-40
-0.022339392 -0.042629637 0.032097951 3.7421535e-40
-0.017499492 -0.042547561 0.032347441 3.7421535e-40
-0.012658994 -0.042555586 0.032372314 1.8982269e-40
-0.007617096 -0.042537592 0.032440323 9.7627063e-41
-0.0025422471 -0.042539358 0.032461446 9.7987196e-41
0.0024999324 -0.042524904 0.032530237 9.7628464e-41
0.0075621842 -0.042513847 0.032734867 9.7264126e-41
0.012586931 -0.042474028 0.033020034 9.690119e-41
0.017537333 -0.042472463 0.033166464 4.7041589e-42
0.022414917 -0.042493768 0.033296015 3.9838915e-42
0.027424132 -0.042511962 0.03341344 3.9810889e-42
0.032345727 -0.042474151 0.033548411 3.9824902e-42
0.037455849 -0.04250608 0.033748295 3.9852928e-42
0.042771962 -0.042809781 0.033305179 9.7273935e-41
0.047627032 -0.042635087 0.032521199 1.1150286e-39
0.05176843 -0.04153711 0.032121014 2.4068478e-39
0.055838902 -0.040228225 0.030593006 1.2965976e-39
-0.052038658 -0.038870782 0.030211238 2.8310713e-40
-0.04694128 -0.038238395 0.030402195 9.4381655e-41
-0.042341586 -0.037860066 0.030574225 1.8802062e-40
-0.037348758 -0.037695941 0.030764038 1.8802062e-40
-0.03231268 -0.037698295 0.031068174 3.7349509e-40
-0.027368838 -0.037601031 0.031286672 3.7421535e-40
-0.022354841 -0.037646249 0.031587165 2.8201972e-40
-0.01751571 -0.037561238 0.031990238 3.7421535e-40
-0.012596943 -0.037535742 0.032270402 2.8165819e-40
-0.0075868042 -0.03748934 0.032362189 1.8982269e-40
-0.0025495344 -0.037452821 0.032417048 9.7266929e-41
0.0025258886 -0.037462063 0.032469168 1.8982269e-40
0.0075835772 -0.037419442 0.032588907 1.9018283e-40
0.012600672 -0.03743976 0.032817185 9.6905394e-41
0.017519187 -0.037421118 0.03301676 9.6542458e-41
0.022438424 -0.03745769 0.033170883 9.6539655e-41
0.027356245 -0.037400573 0.033289932 4.3426239e-42
0.032380011 -0.037378125 0.033432614 3.6237578e-42
0.037393875 -0.037385389 0.033514895 3.9824902e-42
0.042511884 -0.0374199 0.033700585 3.9866941e-42
0.047790896 -0.037652358 0.03343733 9.69124e-41
0.05275948 -0.037640411 0.032682613 9.2991848e-40
0.057086684 -0.036730174 0.032198429 2.5908846e-39
0.060821384 -0.03576263 0.031781271 6.2794426e-39
-0.046132401 -0.034095906 0.030224904 3.2734332e-42
-0.04194833 -0.033475388 0.030295676 3.990898e-42
-0.036976796 -0.033135336 0.030374827 3.7313495e-40
-0.03227032 -0.032750625 0.030607561 3.7421675e-40
-0.027298244 -0.032724313 0.030853156 2.8274139e-40
-0.022351306 -0.032541215 0.031092186 2.8274139e-40
-0.017501226 -0.032575235 0.031447697 3.7421535e-40
-0.012602587 -0.032525867 0.031711966 2.8201972e-40
-0.0075602811 -0.032483827 0.03209373 1.8946396e-40
-0.0025072044 -0.032437343 0.032310773 1.8946396e-40
0.0025307704 -0.032354195 0.032442823 1.9054576e-40
0.0075994958 -0.032377031 0.032444816 1.8946256e-40
0.012579498 -0.032344669 0.032546777 1.8982269e-40
0.017505437 -0.032386668 0.032774493 9.7627063e-41
0.022399135 -0.032376464 0.03301435 9.6542458e-41
0.027376536 -0.032329995 0.03316262 9.6539655e-41
0.032360543 -0.032365713 0.03325776 3.9824902e-42
0.037464779 -0.032363947 0.03336193 3.6209552e-42
0.042519592 -0.032401782 0.03339738 3.6223565e-42
0.047506589 -0.032302741 0.033564363 3.9880954e-42
0.052609086 -0.032530673 0.033620741 9.7272534e-41
0.057771962 -0.032669775 0.032876592 8.3736411e-40
0.062071852 -0.031970304 0.032376457 1.4845328e-39
0.065787226 -0.03080456 0.032259181 2.3139431e-39
-0.037206117 -0.02900251 0.030213354 1.5778046e-39
-0.031937536 -0.028501781 0.030442733 1.0231903e-39
-0.027243089 -0.028011709 0.030408012 6.5296585e-40
-0.022411061 -0.0277356 0.030604489 3.7493842e-40
-0.017338954 -0.02764648 0.030947329 4.6677392e-40
-0.012518097 -0.02750415 0.031324986 4.6677112e-40
-0.0074963793 -0.027511453 0.031676494 1.9018423e-40
-0.0024660355 -0.027478861 0.032039873 2.8238266e-40
0.0025925955 -0.027396411 0.0322983 2.8274139e-40
0.0076199705 -0.027359126 0.032410488 1.8982129e-40
0.012610761 -0.027331946 0.032456487 1.8946116e-40
0.017550213 -0.027367525 0.032554634 1.8982269e-40
0.022380415 -0.027343808 0.032749791 9.7264126e-41
0.027320731 -0.027314559 0.032935347 9.6541056e-41
0.032392208 -0.027285153 0.033067085 3.9852928e-42
0.037425898 -0.027348047 0.033199128 3.6237578e-42
0.042506147 -0.027349917 0.033195764 3.2636241e-42
0.047548942 -0.027281351 0.033286404 3.6237578e-42
0.0525277 -0.027293839 0.033483911 4.3468278e-42
0.057617787 -0.027466441 0.033593684 9.7271133e-41
0.062625736 -0.027631575 0.032947268 5.5969963e-40
0.067248367 -0.027294392 0.03244701 1.2079445e-39
0.071524344 -0.026289642 0.032026034 1.0250036e-39
-0.026116198 -0.02425074 0.03021678 9.3099467e-40
-0.021828325 -0.0232109 0.030395824 7.4407968e-40
-0.017268403 -0.022707175 0.030539632 3.7493982e-40
-0.012394355 -0.022697346 0.031044079 5.6004855e-40
-0.0074732751 -0.022541597 0.031293672 2.8310153e-40
-0.0025098687 -0.022562541 0.031635948 2.8346446e-40
0.0026086685 -0.022460062 0.031959172 2.8202113e-40
0.0076109609 -0.022438031 0.03231018 2.8237986e-40
0.012666216 -0.022407658 0.032408264 1.8982129e-40
0.017576298 -0.0224407 0.032408446 1.8946116e-40
0.022418318 -0.02237306 0.032452192 9.7627063e-41
0.027353065 -0.022395099 0.032645795 9.7265528e-41
0.032398891 -0.022295572 0.032721005 9.6182324e-41
0.037540812 -0.022391001 0.032669928 9.6542458e-41
0.042492218 -0.022256143 0.032663383 1.8729475e-40
0.047501296 -0.022309199 0.032772552 9.5460655e-41
0.052458197 -0.022312891 0.033046965 4.3440252e-42
0.057399593 -0.022480991 0.033417407 3.9866941e-42
0.062448576 -0.022426976 0.033507101 9.6549464e-41
0.067665957 -0.022723993 0.033047471 4.6714106e-40
0.072368264 -0.022405252 0.032499846 1.0231917e-39
0.076641418 -0.021476695 0.03231306 1.5781704e-39
-0.021267813 -0.019342352 0.030072026 2.8635814e-40
-0.017037006 -0.018352928 0.030340843 7.4552021e-40
-0.012162821 -0.017954089 0.030550659 5.6041149e-40
-0.0074741659 -0.017785259 0.030806227 4.6893612e-40
-0.0025041199 -0.017619837 0.0310634 2.8310153e-40
0.0026279036 -0.017665496 0.031437978 2.8238266e-40
0.0076835053 -0.017656999 0.031914379 2.8274139e-40
0.012645626 -0.017659593 0.032244422 2.8201972e-40
0.017562818 -0.017531442 0.032411367 1.8946256e-40
0.02242597 -0.017604563 0.032422822 9.7625661e-41
0.027354922 -0.017547339 0.032394391 1.8946396e-40
0.032376043 -0.017541979 0.032409534 1.9054296e-40
0.037308436 -0.017816188 0.032160986 6.4754983e-40
0.042631153 -0.018111648 0.032050271 1.475863e-39
0.047664676 -0.017588733 0.032367375 1.5680586e-39
0.052545585 -0.017469447 0.032636289 5.5499407e-40
0.057479508 -0.017518783 0.033043213 3.9838915e-42
0.062431809 -0.017397957 0.033352617 3.6251591e-42
0.067466088 -0.017611837 0.033522852 3.6307643e-42
0.072769679 -0.017655032 0.032980654 1.9019264e-40
0.077306904 -0.017504387 0.032577831 7.4624468e-40
0.082082339 -0.016806467 0.032591734 1.5770886e-39
0.085707769 -0.015367434 0.032694925 1.2058131e-39
-0.015268254 -0.013640568 0.030062085 2.5601723e-42
-0.011802407 -0.013309509 0.030224007 3.7710203e-40
-0.0072806031 -0.012910878 0.030482911 7.4588175e-40
-0.002315619 -0.012690786 0.030642357 6.5296445e-40
0.0026939015 -0.01270918 0.03093344 3.7457689e-40
0.0077288686 -0.01278708 0.031258713 1.9018563e-40
0.012727184 -0.012768785 0.03177334 2.8273999e-40
0.017587321 -0.012650164 0.032283545 1.9018563e-40
0.022404259 -0.012649984 0.032429066 1.8982269e-40
0.027339756 -0.012647771 0.032333802 1.9018283e-40
0.032261413 -0.012769955 0.032044534 4.6604665e-40
0.036194105 -0.01328472 0.031212525 4.2424507e-39
0.044353314 -0.014818944 0.030399369 0
0.048852038 -0.013216335 0.032089345 1.4762217e-39
0.052643422 -0.012654603 0.032427054 1.4758616e-39
0.057434119 -0.012501481 0.032791287 9.6180923e-41
0.062418871 -0.012460214 0.033197653 3.6223565e-42
0.067248955 -0.01246064 0.033450566 3.6237578e-42
0.072509117 -0.012630318 0.033709805 3.990898e-42
0.077722214 -0.012760252 0.032875285 1.9055137e-40
0.082289621 -0.012473262 0.032769568 1.2065054e-39
0.087479457 -0.01235674 0.032725647 8.3880465e-40
0.091243044 -0.011066264 0.032393951 1.9448019e-39
-0.010078641 -0.0092773158 0.030038916 9.7265528e-41
-0.0068860529 -0.0088023059 0.030379849 2.0387786e-39
-0.0020005156 -0.0082183564 0.030401051 6.5296445e-40
0.0028426452 -0.0079641435 0.030616116 6.5224278e-40
0.0076959939 -0.0076977927 0.03080849 4.6641098e-40
0.012798893 -0.0077306177 0.031213867 3.7493562e-40
0.017677123 -0.0076793656 0.031863265 1.9054576e-40
0.022459516 -0.0076124766 0.032362461 1.9018423e-40
0.027377298 -0.0076061059 0.032340914 2.8238126e-40
0.032144811 -0.0075158207 0.031906005 8.3482776e-40
0.036256474 -0.0069878292 0.030894667 4.519039e-39
0.041851655 -0.0054694293 0.030173479 3.8535708e-43
0.048992444 -0.0070768078 0.031384107 6.4573375e-40
0.052596252 -0.0076178187 0.032378528 5.5354512e-40
0.057460327 -0.0075439569 0.032698888 9.6539655e-41
0.062366981 -0.0074785734 0.033084638 3.6209552e-42
0.067377269 -0.0076040914 0.033423048 3.2636241e-42
0.07237754 -0.0074724723 0.03362707 3.2636241e-42
0.077598602 -0.0077011678 0.033630636 4.7111654e-42
0.08277081 -0.0078302762 0.032933202 2.827484e-40
0.087170057 -0.0072562322 0.032771043 1.4816503e-39
0.092626318 -0.0079553714 0.032750141 1.2994199e-39
0.096560217 -0.0065673823 0.032791808 2.2217419e-39
0.10072406 -0.0055545447 0.033791605 4.5241439e-39
-0.0021566038 -0.0045749173 0.03010508 9.3171494e-40
0.0034555495 -0.0034094437 0.03033415 3.7493702e-40
0.0079042716 -0.0027889637 0.030481556 3.7385382e-40
0.01287853 -0.0026400695 0.030897299 6.5152111e-40
0.017677732 -0.0026324308 0.031416826 3.7457549e-40
0.022511194 -0.0026143892 0.032043286 1.898255e-40
0.027407127 -0.0025462194 0.032276366 2.8202113e-40
0.032334648 -0.0024732642 0.032052431 1.2972521e-39
0.037203498 -0.0020871749 0.031410549 1.0174113e-39
0.042639114 -0.001664773 0.031205958 3.6987273e-40
0.047889508 -0.002243448 0.031967405 1.8548287e-40
0.052609649 -0.0025236146 0.032440908 1.8765208e-40
0.057494272 -0.0025613781 0.032580335 9.690119e-41
0.062396612 -0.0024250133 0.032968711 3.6237578e-42
0.067345463 -0.0025234129 0.033243217 3.2622228e-42
0.07235875 -0.0024528636 0.03345884 2.9020891e-42
0.077406153 -0.0025120364 0.033604342 2.9034904e-42
0.082572676 -0.0025049492 0.033678632 4.3510317e-42
0.087866396 -0.0027730255 0.033009771 2.8310573e-40
0.092166044 -0.0019507692 0.032670185 1.8507916e-39
0.097949252 -0.0031707243 0.033160951 1.3898176e-39
0.10211805 -0.0019047608 0.032726694 1.4845328e-39
0.10587623 -0.00047105958 0.032902945 1.577104e-39
0.0045820354 0.0014582605 0.030126739 1.2997758e-39
0.0080146603 0.001795631 0.030266896 6.5152251e-40
0.013054742 0.002227295 0.030600026 1.1125021e-39
0.017508093 0.002512373 0.031201605 1.0210253e-39
0.022557832 0.0023578696 0.031545877 2.8274139e-40
0.027429767 0.0024346674 0.032011818 1.9054576e-40
0.032365967 0.0025479035 0.031992115 2.8274139e-40
0.037468579 0.0025625073 0.031951517 1.3898078e-39
0.042610664 0.0026149887 0.032115564 1.4816405e-39
0.047608037 0.0025613611 0.03239347 8.3591097e-40
0.052629597 0.0025410152 0.032462858 2.8237846e-40
0.057547573 0.0025836232 0.032479864 9.5823592e-41
0.062383499 0.002553399 0.032810207 3.2636241e-42
0.067370459 0.0025583594 0.033116091 2.9048917e-42
0.07242161 0.0025623785 0.0333464 2.9034904e-42
0.077437624 0.0025997374 0.033513162 2.5433567e-42
0.082501046 0.0025742727 0.033640418 2.9020891e-42
0.087551072 0.0025434459 0.033687484 4.3496304e-42
0.09282361 0.002236055 0.03303688 1.9054997e-40
0.096996546 0.0030817664 0.032667968 2.0348241e-39
0.10276325 0.0021565405 0.033632733 3.5092325e-39
0.1073192 0.0024485476 0.032738727 1.023912e-39
0.11107619 0.0041356739 0.032656882 1.1161076e-39
0.0094327414 0.0055502686 0.030187836 1.9444249e-39
0.013091505 0.0066228155 0.030340534 1.2065026e-39
0.017915249 0.0072773341 0.030966586 1.5759997e-39
0.022501625 0.0074424366 0.030983452 5.6004855e-40
0.02752319 0.0072947759 0.031353645 1.9018843e-40
0.032496646 0.0074836784 0.031837266 1.9054716e-40
0.037477255 0.0075769988 0.03205457 2.8274139e-40
0.042568065 0.0075878599 0.032158878 2.8274139e-40
0.04763519 0.007591316 0.03236695 1.9054436e-40
0.052651674 0.0076278583 0.032460432 9.7265528e-41
0.057609532 0.0076227398 0.032443542 9.6906795e-41
0.062395893 0.0076450161 0.03265103 9.6183725e-41
0.067289606 0.0077028689 0.032893918 3.2650254e-42
0.072339535 0.0076141432 0.033142157 3.2650254e-42
0.077430516 0.0076383478 0.033394869 2.5433567e-42
0.082475848 0.007660917 0.033549782 2.5419554e-42
0.087540843 0.0076186429 0.033691857 2.5433567e-42
0.092566662 0.0075965538 0.033750642 3.9894967e-42
0.097823262 0.0072722565 0.033048343 1.9054857e-40
0.10199682 0.0081124175 0.032832496 1.9426285e-39
0.10764284 0.0071246959 0.034015428 3.7858208e-39
0.11272112 0.0070685381 0.032968391 9.3099467e-40
0.11680262 0.0085900966 0.032560751 9.3243381e-40
0.12047527 0.0094871782 0.03384874 1.263951e-38
0.014641217 0.011650365 0.03009031 7.4660762e-40
0.018123899 0.011793051 0.030432092 1.6700002e-39
0.022618167 0.011955055 0.030636536 1.1150244e-39
0.027692351 0.012264024 0.030768236 1.9162756e-40
0.032551892 0.012412737 0.031215386 1.909087e-40
0.037555289 0.01242593 0.031695686 1.909073e-40
0.042600278 0.012518385 0.031979248 2.8310153e-40
0.047610629 0.012614951 0.032241642 1.909059e-40
0.052626748 0.01261751 0.032391876 1.9018283e-40
0.057541851 0.012676324 0.032400735 9.6906795e-41
0.062362857 0.012647278 0.032491978 9.6906795e-41
0.067384303 0.012646686 0.032645848 9.6185127e-41
0.072361156 0.012714982 0.032918617 9.5462057e-41
0.077398725 0.01263085 0.033120252 2.9048917e-42
0.082469523 0.01267286 0.033425346 2.5433567e-42
0.087479942 0.01270863 0.033606157 2.5433567e-42
0.09251906 0.012614216 0.033699527 2.5433567e-42
0.097547457 0.012550782 0.033717703 3.9880954e-42
0.10266108 0.012241492 0.033157673 1.9054716e-40
0.1069745 0.0130101 0.032813456 1.8507958e-39
0.11225824 0.012761886 0.034130391 6.7364453e-39
0.11769976 0.01200754 0.033107478 1.3905393e-39
0.12216667 0.012929115 0.032676402 8.4059831e-40
0.12561435 0.014295508 0.032919571 1.4845272e-39
0.023549221 0.016812362 0.030346559 9.3171214e-40
0.027558967 0.017238522 0.030530097 6.5440638e-40
0.032674562 0.017440928 0.030839873 4.6929486e-40
0.037577823 0.017446602 0.03125342 5.6149049e-40
0.042657237 0.017393405 0.031522553 4.6821586e-40
0.047598861 0.017465623 0.031852085 3.7565869e-40
0.052656472 0.017542282 0.032233439 2.8310153e-40
0.057519924 0.017599558 0.032421798 1.9054436e-40
0.062398642 0.017581595 0.032424204 9.7266929e-41
0.067350045 0.017604521 0.032475293 9.6906795e-41
0.072392225 0.01763187 0.032641087 9.654526e-41
0.077442877 0.017594999 0.032904644 3.267828e-42
0.082478665 0.017663427 0.033115007 2.9034904e-42
0.087554976 0.017719256 0.033398736 2.5433567e-42
0.092614017 0.01758936 0.033472452 2.183223e-42
0.097536251 0.017581325 0.033580985 2.5419554e-42
0.10245301 0.017560769 0.033670381 3.6279617e-42
0.10768542 0.017279256 0.033272322 9.7992802e-41
0.11214329 0.0179513 0.032662086 1.2979821e-39
0.11728245 0.017501442 0.034048956 5.2620313e-39
0.12249275 0.01712852 0.033117276 5.5969682e-40
0.12757248 0.01713681 0.032705244 1.1175467e-39
0.1317272 0.018736422 0.033104919 2.0398576e-39
0.024639614 0.020797117 0.030095 9.7994203e-41
0.028072154 0.021681668 0.030248029 4.6929766e-40
0.032922588 0.022266233 0.030392898 3.7674049e-40
0.037675504 0.022271423 0.030731212 3.7710063e-40
0.042723645 0.022292085 0.03107889 3.7673909e-40
0.047769707 0.022313049 0.031454656 2.8418333e-40
0.052745044 0.022296289 0.031927895 2.8382319e-40
0.057601828 0.022388093 0.03221228 2.8346166e-40
0.062369965 0.022428408 0.032375302 1.9054436e-40
0.067326769 0.022422878 0.032418028 9.7266929e-41
0.07238625 0.022434628 0.032415926 9.6546662e-41
0.077412561 0.022463497 0.032585789 9.6546662e-41
0.082530268 0.022499705 0.032789771 3.2664267e-42
0.087567173 0.022545045 0.033021696 2.5461593e-42
0.092511997 0.022461077 0.033228114 2.183223e-42
0.097476281 0.022510573 0.033404425 2.1846243e-42
0.10239188 0.022465058 0.033454657 2.1818217e-42
0.10733953 0.022535179 0.033571731 2.906293e-42
0.11261775 0.022337111 0.033214461 9.8352935e-41
0.11710426 0.022829337 0.032722399 1.1139496e-39
0.12262323 0.022088308 0.034348346 7.1981381e-39
0.12767765 0.022124257 0.033528395 1.2050606e-39
0.13249646 0.022220129 0.033014316 7.4660061e-40
0.13708101 0.022652999 0.033526253 1.2079361e-39
0.14017354 0.024640597 0.033332437 1.012256e-40
0.029971845 0.025195412 0.030091919 9.3999101e-42
0.033706207 0.026957085 0.030231522 4.7145986e-40
0.037873346 0.027120864 0.030442659 5.6257369e-40
0.042739298 0.027255548 0.030728165 4.6965779e-40
0.04769069 0.027244402 0.031091873 3.7710063e-40
0.052776743 0.027263731 0.03147215 2.849036e-40
0.057593644 0.027272122 0.031835947 2.8418333e-40
0.062478166 0.027317429 0.032173116 2.8346026e-40
0.067388773 0.02732498 0.032335356 1.9054436e-40
0.072388917 0.027362751 0.032427005 1.9018563e-40
0.07747148 0.027352218 0.032399025 9.6906795e-41
0.082532294 0.027403086 0.032495335 9.654526e-41
0.087556176 0.027422145 0.032680705 9.5462057e-41
0.092545204 0.027442303 0.03285791 2.544758e-42
0.097457372 0.027454352 0.033070039 2.1846243e-42
0.10243854 0.027496757 0.033239357 2.183223e-42
0.10739238 0.027550071 0.033353377 1.8230893e-42
0.11245237 0.027488135 0.033458617 2.906293e-42
0.11766047 0.027303327 0.033095926 1.9054857e-40
0.1221706 0.027706822 0.032783695 1.0213966e-39
0.12716694 0.028103318 0.033876646 7.2903449e-39
0.1329598 0.026899714 0.034005675 2.0340996e-39
0.13735352 0.027970897 0.033590805 1.9055137e-40
0.1426598 0.027196629 0.033173349 1.9378276e-40
0.1453561 0.029182412 0.033236004 1.9666944e-40
0.034483999 0.031648185 0.030018441 1.7640036e-39
0.037448533 0.031407923 0.0301788 1.3944952e-39
0.043016586 0.031960893 0.030514307 7.4804535e-40
