# .PCD v0.7 - Point Cloud Data file format
VERSION 0.7
FIELDS x y z
SIZE 4 4 4
TYPE F F F
COUNT 1 1 1
WIDTH 249
HEIGHT 1
VIEWPOINT 0 0 0 1 0 0 0
POINTS 249
DATA ascii
-0.76423454 0.53510356 1.53725
-0.74060768 0.46232766 1.5460001
-0.73766291 0.46380004 1.5460001
-0.76416576 0.47263432 1.5460001
-0.74060768 0.47263432 1.5460001
-0.80244768 0.48588574 1.5460001
-0.79739958 0.48483407 1.5460002
-0.80244768 0.49324769 1.5460002
-0.79721248 0.49586526 1.5460002
-0.78772384 0.49913716 1.5460001
-0.78183436 0.51827812 1.5460001
-0.7788896 0.51827812 1.5460001
-0.78330672 0.53447431 1.5460001
-0.77373624 0.53484243 1.5460002
-0.76563811 0.53152955 1.5460001
-0.77058387 0.37715718 1.5530001
-0.76614672 0.37715718 1.5530001
-0.77058387 0.38011527 1.5530001
-0.76762575 0.3815943 1.5530001
-0.78734648 0.44420731 1.5530002
-0.80164385 0.45998383 1.5530001
-0.78510547 0.45568117 1.5530002
-0.75382131 0.45801181 1.5530002
-0.74691916 0.45850477 1.5530002
-0.78537434 0.46590006 1.5530002
-0.77565491 0.46759042 1.5530002
-0.74396098 0.46590003 1.5530001
-0.7380448 0.46442097 1.5530001
-0.81298321 0.47674641 1.5530002
-0.80312294 0.47773242 1.5530001
-0.77311939 0.47392923 1.5530002
-0.76762575 0.47181621 1.5530001
-0.74544001 0.47403479 1.5530001
-0.81468648 0.48553103 1.5530002
-0.80645072 0.48327884 1.5530002
-0.79424864 0.48512766 1.5530003
-0.78833246 0.48808575 1.5530001
-0.75283527 0.48808575 1.5530001
-0.74626172 0.48693541 1.5530002
-0.81199718 0.4925229 1.5530001
-0.80682051 0.4947415 1.5530001
-0.79387891 0.49511123 1.5530002
-0.78833246 0.49548101 1.5530002
-0.75505382 0.49326241 1.5530001
-0.7469191 0.49548101 1.5530002
-0.81199718 0.50583434 1.5530001
-0.80519354 0.50494689 1.5530003
-0.79424858 0.50484824 1.5530002
-0.78833246 0.50287622 1.5530001
-0.81199718 0.51175052 1.5530001
-0.80460203 0.51125753 1.5530002
-0.7972067 0.51027149 1.5530001
-0.77218843 0.37491217 1.56525
-0.76217151 0.37588573 1.5600001
-0.78051531 0.3865267 1.567
-0.77339244 0.38694164 1.5646667
-0.76700699 0.38275895 1.5658334
-0.77454579 0.39249623 1.567
-0.77454585 0.41637433 1.5670002
-0.82230198 0.42831337 1.567
-0.81862861 0.42937145 1.5600001
-0.7626068 0.42532861 1.5670002
-0.75962198 0.42532861 1.5670002
-0.83573341 0.4342829 1.567
-0.82418954 0.43628764 1.5635
-0.81739777 0.43455613 1.5626252
-0.79245442 0.4342829 1.5670002
-0.78797722 0.43428296 1.5670002
-0.75663722 0.43129814 1.567
-0.82361889 0.44423458 1.56525
-0.81520164 0.44383526 1.5656
-0.80480242 0.44592109 1.5649003
-0.79445398 0.44345486 1.5631113
-0.78526407 0.44394496 1.5650001
-0.77647233 0.44497281 1.5626252
-0.76409912 0.44771433 1.567
-0.75365245 0.44025242 1.567
-0.81558627 0.45405692 1.5670002
-0.80498248 0.4542948 1.5652502
-0.79535246 0.45413336 1.5600002
-0.78353018 0.45385972 1.5635003
-0.7779597 0.45650536 1.5626252
-0.76459664 0.45318639 1.5670002
-0.75504273 0.45514128 1.5623336
-0.74634427 0.45733967 1.5642
-0.81931722 0.46711528 1.567
-0.80748576 0.46428573 1.5600001
-0.7829715 0.46354288 1.5600001
-0.77494866 0.46443436 1.5600003
-0.7655915 0.46114576 1.567
-0.75028574 0.46502861 1.5600001
-0.74247593 0.46374321 1.5623335
-0.73856437 0.46755767 1.5635
-0.81558633 0.47383094 1.5670002
-0.80617154 0.474861 1.5646667
-0.79740107 0.47673544 1.5650002
-0.78594285 0.47691435 1.5600002
-0.77603811 0.47691435 1.5600002
-0.7512762 0.47592387 1.5600002
-0.74279338 0.47485435 1.5630002
-0.73723626 0.47159243 1.567
-0.76217151 0.48880002 1.5600001
-0.75571609 0.48507071 1.5614001
-0.74743718 0.48357496 1.5623335
-0.78891438 0.49474287 1.5600002
-0.75920004 0.49177146 1.5600001
-0.83796769 0.37176383 1.5740001
-0.78340238 0.37805983 1.5740002
-0.77380842 0.37566137 1.5740002
-0.76721263 0.37326288 1.5740002
-0.78580076 0.38465568 1.5740002
-0.77200955 0.38825336 1.5740001
-0.76601338 0.38525528 1.5740001
-0.78350228 0.39374989 1.5740002
-0.77500767 0.39424956 1.5740002
-0.7690115 0.39125144 1.5740001
-0.83347052 0.40474287 1.5740001
-0.82497597 0.40424323 1.5740001
-0.81997913 0.40324384 1.5740001
-0.78175342 0.40624192 1.5740001
-0.77550739 0.40674162 1.5740002
-0.76601338 0.40924004 1.5740001
-0.83546937 0.41573593 1.5740002
-0.81473243 0.41748479 1.5740001
-0.79299623 0.41673526 1.5740001
-0.785501 0.41523623 1.5740002
-0.77457935 0.41437963 1.5740002
-0.76501405 0.41423687 1.5740001
-0.84482044 0.42594373 1.5740002
-0.83796769 0.42423052 1.5740001
-0.81473243 0.42348099 1.5740001
-0.79299623 0.42572957 1.5740001
-0.785501 0.42423052 1.5740002
-0.7758643 0.42380226 1.5740002
-0.76601338 0.42423055 1.5740002
-0.84433866 0.43322477 1.5740002
-0.83530277 0.43422413 1.5740002
-0.82697475 0.43122607 1.5740001
-0.81467479 0.43460852 1.5740002
-0.8058452 0.43579459 1.5740002
-0.7974934 0.43472385 1.5740001
-0.78446317 0.43437791 1.5740002
-0.776007 0.43522349 1.5740002
-0.76368153 0.43655598 1.5740002
-0.75402105 0.43922099 1.5740001
-0.83496958 0.44221908 1.5740001
-0.81098479 0.44221908 1.5740001
-0.80498862 0.44221911 1.5740001
-0.77500761 0.44521719 1.5740002
-0.76391476 0.44461757 1.5740002
-0.75402099 0.44461757 1.5740002
-0.74702549 0.44321847 1.5740001
-0.76201594 0.45321211 1.5740001
-0.75477052 0.45346192 1.5740001
-0.78542006 0.3662267 1.5890001
-0.77460241 0.36803004 1.5870001
-0.7679143 0.36890003 1.5810001
-0.85200673 0.37682003 1.5890001
-0.8445338 0.37820035 1.5863335
-0.83233345 0.3753067 1.5890001
-0.8249855 0.37628096 1.5842003
-0.81486535 0.3766444 1.5854446
-0.80458897 0.37732452 1.5890001
-0.79335725 0.37541106 1.5867145
-0.78488135 0.37228128 1.5844289
-0.7767458 0.37152991 1.5836668
-0.76769626 0.37505084 1.5836668
-0.86411339 0.38590002 1.5890001
-0.85200673 0.38590002 1.5890001
-0.84486997 0.38558531 1.5863333
-0.83591491 0.38645223 1.5826002
-0.82638615 0.38496098 1.5810002
-0.81459159 0.3842918 1.5810002
-0.8085686 0.38546288 1.5810001
-0.79501724 0.38094574 1.5810001
-0.77028674 0.38287336 1.5890001
-0.76942003 0.38094574 1.5810001
-0.85200673 0.39195335 1.5890001
-0.84646386 0.39656508 1.5867144
-0.83567148 0.39600289 1.5810002
-0.82596797 0.3966721 1.5810002
-0.81308579 0.39901432 1.5810001
-0.7927587 0.39826146 1.5810001
-0.78447717 0.39600289 1.5810001
-0.77322483 0.39767465 1.5836668
-0.76942003 0.39600289 1.5810001
-0.85200673 0.4025467 1.5890001
-0.84375381 0.40484172 1.5826002
-0.83491862 0.40353143 1.5810001
-0.82550782 0.40503716 1.5810002
-0.81461591 0.40474555 1.5834001
-0.80723023 0.40456241 1.5880001
-0.79411381 0.40533829 1.5810002
-0.7849791 0.40453526 1.5810002
-0.77359647 0.4050467 1.5834001
-0.76769626 0.40521592 1.5836668
-0.84169436 0.41256577 1.5810001
-0.8346678 0.4130677 1.5810002
-0.82522535 0.4137429 1.5816668
-0.81450951 0.41358098 1.5826002
-0.80639374 0.4135409 1.583182
-0.79614645 0.4129422 1.5810002
-0.77243149 0.41708288 1.5810001
-0.76458943 0.41404134 1.5847332
-0.84169436 0.42611718 1.5810001
-0.83539772 0.42502213 1.5810003
-0.82577688 0.42504171 1.5810001
-0.81287068 0.42525679 1.5810002
-0.80555707 0.42420086 1.5810003
-0.79893202 0.4243103 1.5810002
-0.7744391 0.42511338 1.5810001
-0.85374004 0.43214002 1.5810001
-0.83567148 0.43214002 1.5810001
-0.82061434 0.43214002 1.5810001
-0.81158006 0.43214002 1.5810001
-0.79953432 0.43214002 1.5810001
-0.80256009 0.36936003 1.5960001
-0.79420006 0.36708 1.5960001
-0.78627431 0.36588576 1.5960001
-0.77773345 0.36530671 1.5960001
-0.86366409 0.37604806 1.5960001
-0.8557601 0.37645337 1.5960001
-0.84360015 0.37848005 1.5960001
-0.83752006 0.37544003 1.5960001
-0.82536006 0.37544003 1.5960001
-0.81522673 0.37544006 1.5960001
-0.80458665 0.37493336 1.5960001
-0.79800004 0.37240002 1.5960001
-0.77064008 0.37240002 1.5960001
-0.76760006 0.37848002 1.5960001
-0.89224005 0.38760003 1.5960001
-0.88008004 0.38760003 1.5960001
-0.86336005 0.38608003 1.5960001
-0.85677338 0.38405335 1.5960001
-0.84208006 0.38152003 1.5960001
-0.80712003 0.38152003 1.5960001
-0.77165341 0.38456005 1.5960001
-0.76760006 0.38456005 1.5960001
-0.85798669 0.34960669 1.603
-0.86256671 0.35571337 1.603
-0.85646009 0.3557134 1.6029999
-0.84424675 0.35571337 1.603
-0.86485672 0.36640003 1.603
-0.85684174 0.36525503 1.6029999
-0.80455339 0.36792669 1.603
-0.7961567 0.36410999 1.603
-0.78470671 0.36487335 1.603
-0.77402008 0.36792669 1.603
-0.8640483 0.33513626 1.6135455
