# .PCD v0.7 - Point Cloud Data file format
VERSION 0.7
FIELDS x y z
SIZE 4 4 4
TYPE F F F
COUNT 1 1 1
WIDTH 436
HEIGHT 1
VIEWPOINT 0 0 0 1 0 0 0
POINTS 436
DATA ascii
0.22693431 0.4859466 1.4644287
0.23352729 0.48551723 1.4663334
0.22710954 0.49509522 1.4630002
0.23451063 0.49431804 1.4644287
0.2277343 0.5043686 1.4670001
0.23220515 0.50492746 1.4670001
0.22473775 0.48510805 1.473
0.23240671 0.48211527 1.473
0.2230543 0.49240288 1.473
0.22656144 0.50713289 1.473
0.23820515 0.50474805 1.473
0.22726287 0.51344573 1.473
0.23483829 0.51484865 1.4729999
0.23068382 0.47976574 1.4860001
0.22716048 0.48254719 1.4815
0.23633668 0.48183954 1.4815
0.24168003 0.48759621 1.4840001
0.22502287 0.49957907 1.4860001
0.24102859 0.49474287 1.48
0.22502287 0.50665528 1.4860001
0.24331318 0.50498784 1.4836
0.22407937 0.51609027 1.4860001
0.24331318 0.51459783 1.4836
0.22606781 0.52364159 1.4836
0.23501638 0.52617878 1.4812001
0.24151716 0.52258384 1.483
0.22785334 0.53212953 1.4860001
0.23403366 0.53352958 1.4833333
0.24200574 0.53212953 1.4860001
0.22270858 0.46968669 1.4990001
0.21842574 0.47539717 1.4990001
0.22498053 0.4762865 1.4977275
0.23614225 0.47845528 1.4966668
0.21771193 0.48467672 1.4990001
0.22365563 0.48422858 1.4958185
0.23571764 0.48140529 1.4955001
0.24446593 0.4857924 1.4976001
0.2169981 0.49538383 1.4990001
0.22231443 0.49487388 1.4950001
0.24768324 0.49535894 1.4946251
0.2154855 0.50517887 1.4984169
0.2224113 0.50461018 1.4946251
0.24795622 0.50372767 1.4920001
0.25268859 0.50823241 1.4990001
0.18987335 0.51679814 1.4990001
0.19368033 0.51727402 1.4990001
0.21544801 0.5149762 1.4962002
0.2214656 0.51377583 1.4920001
0.2480983 0.51466894 1.4920001
0.25472805 0.51577842 1.4990001
0.18796986 0.52552253 1.4990002
0.19558382 0.52536392 1.4990003
0.2059066 0.52635229 1.4990003
0.2145776 0.52396297 1.4939094
0.22024763 0.52433145 1.4920001
0.24752994 0.5248999 1.4920001
0.25554383 0.52536392 1.4990003
0.26268193 0.52821904 1.4990001
0.18844573 0.53535718 1.4990001
0.195316 0.53442556 1.4948002
0.20557714 0.53535718 1.4990003
0.2145638 0.53285718 1.4920002
0.22365792 0.53427809 1.4920002
0.24652945 0.53463775 1.4943335
0.25554386 0.53535718 1.4990002
0.26532403 0.53549123 1.4962004
0.27470347 0.53627938 1.4976002
0.28314447 0.53440547 1.4990001
0.18987335 0.54106766 1.4990001
0.19501278 0.54278082 1.4990001
0.20557716 0.54106766 1.4990001
0.21557049 0.54310715 1.4990001
0.22528593 0.54395795 1.4982224
0.23445718 0.54138291 1.4920001
0.24769191 0.54320908 1.4990001
0.25554383 0.54249525 1.4990001
0.26393262 0.54182786 1.4948001
0.27467716 0.54127783 1.4943335
0.25100002 0.45753717 1.506
0.21848953 0.46805525 1.506
0.22489603 0.46442175 1.5060002
0.23092002 0.46901146 1.506
0.21657717 0.47515845 1.506
0.22805144 0.47331432 1.506
0.23187622 0.47474861 1.506
0.21493797 0.48417392 1.506
0.2323543 0.48048574 1.506
0.2423943 0.48335433 1.506
0.25100002 0.48909146 1.506
0.21542974 0.49368119 1.506
0.25243431 0.49482858 1.506
0.21155716 0.50486863 1.506
0.25637859 0.50558573 1.506
0.2624743 0.50773716 1.506
0.18789144 0.51634288 1.506
0.19458477 0.5153867 1.506
0.20592247 0.51531845 1.506
0.21084003 0.51490867 1.506
0.2588886 0.51419151 1.506
0.26390857 0.51490867 1.506
0.27968574 0.5177772 1.506
0.28542286 0.51706004 1.506
0.18597907 0.52351427 1.506
0.19936572 0.52064574 1.506
0.20510289 0.52208006 1.506
0.21084002 0.52064574 1.506
0.26498431 0.52459002 1.506
0.27586097 0.5273391 1.5060002
0.28542289 0.52523547 1.5060002
0.29116002 0.52925146 1.506
0.18502288 0.53498864 1.506
0.26821145 0.53212005 1.506
0.27624345 0.5326938 1.506
0.28542289 0.53212011 1.506
0.18645716 0.54216003 1.506
0.19076002 0.54646289 1.506
0.20510289 0.54646289 1.506
0.21370858 0.54861432 1.506
0.2223143 0.54933149 1.506
0.23522288 0.54933149 1.506
0.25673717 0.5435943 1.506
0.22423334 0.44991335 1.5190001
0.23146668 0.44991335 1.5190001
0.24448669 0.44846672 1.5190001
0.25027335 0.44846669 1.5190001
0.21700001 0.4571467 1.5190001
0.22536603 0.45708737 1.5169001
0.23416616 0.45598161 1.5184617
0.24432209 0.45633957 1.515231
0.25119734 0.45585606 1.5176001
0.20976669 0.46727335 1.5190001
0.21505448 0.46474779 1.5155001
0.22340403 0.46496937 1.5134001
0.2356267 0.46367002 1.5155001
0.24466576 0.46439719 1.5150001
0.25327602 0.46526003 1.5162001
0.20918803 0.47421739 1.5190001
0.21264002 0.47424006 1.5120001
0.23641668 0.47369406 1.5155001
0.24448667 0.4745068 1.5190001
0.25192669 0.47306004 1.5190002
0.20811239 0.48449719 1.5160002
0.21168002 0.48528004 1.5120001
0.24594252 0.48359254 1.5146251
0.25177601 0.48533869 1.5176001
0.19819334 0.49910003 1.5190001
0.20584206 0.49665445 1.5163078
0.21168001 0.49536002 1.5120001
0.25703713 0.49572289 1.5150001
0.26184669 0.49910003 1.5190001
0.18533908 0.50504291 1.5170003
0.19477612 0.50496614 1.5149168
0.20477881 0.50545156 1.5151819
0.21168001 0.50256002 1.5120001
0.25776002 0.50256002 1.5120001
0.26429734 0.50406271 1.5148001
0.2748667 0.50488669 1.5190001
0.28306448 0.50585115 1.5190001
0.18398313 0.5148356 1.5148003
0.19497602 0.51235199 1.5120001
0.20361133 0.51305932 1.5141001
0.268704 0.51465601 1.5120001
0.27515587 0.51460421 1.5146253
0.28330079 0.5138489 1.5151112
0.18241432 0.52499151 1.5150001
0.26928002 0.52416003 1.5120001
0.27504003 0.52416003 1.5120001
0.28224003 0.52272004 1.5120001
0.18258002 0.53475666 1.5155001
0.29078001 0.5309267 1.5190001
0.18381168 0.54423165 1.5137501
0.18951334 0.55118006 1.5190001
0.19530003 0.55407345 1.5190001
0.20542668 0.55407339 1.5190001
0.25895336 0.55118006 1.5190001
0.21524286 0.43542385 1.5250001
0.22415082 0.4352302 1.5250001
0.20769049 0.44442859 1.5250001
0.21495238 0.44442862 1.5249999
0.22453812 0.44500956 1.525
0.23528571 0.44733337 1.5250001
0.2454524 0.44442856 1.5250001
0.25126192 0.44442859 1.5250001
0.20769049 0.4516905 1.5250001
0.21437144 0.4540143 1.525
0.22366668 0.45386904 1.5250001
0.2381905 0.4516905 1.5250001
0.20478573 0.46766672 1.5250001
0.21132144 0.46258336 1.5250001
0.20442262 0.47492862 1.5250001
0.25610319 0.47686514 1.5250001
0.2043016 0.4826746 1.5250001
0.2566565 0.48447284 1.5250002
0.20478573 0.49816671 1.5250001
0.25852382 0.49235716 1.5250001
0.26360717 0.49598813 1.5250001
0.27508098 0.49700481 1.5250001
0.2832143 0.49526194 1.5250001
0.19316667 0.50107145 1.5250001
0.26723811 0.50107145 1.5250001
0.27450001 0.50107145 1.5250001
0.28539288 0.50470245 1.5250001
0.17864287 0.51559526 1.5250001
0.28902382 0.51414287 1.5250001
0.18154763 0.53592861 1.5250001
0.18154763 0.54609525 1.5250001
0.20443948 0.41661775 1.5380002
0.21532004 0.41661775 1.5380002
0.2242543 0.41655603 1.539
0.23353718 0.41675144 1.539
0.2447743 0.41655603 1.539
0.20523596 0.42522192 1.5385332
0.21501096 0.4245739 1.5358181
0.22465281 0.42422673 1.5359999
0.23506674 0.42491859 1.5385
0.24477431 0.42505723 1.5389999
0.25137001 0.42579004 1.539
0.19988954 0.43771434 1.5320001
0.20529105 0.43522406 1.535
0.2142361 0.43358302 1.5328751
0.22493653 0.43406671 1.5319999
0.23538817 0.43421569 1.5351111
0.2448138 0.435776 1.5339999
0.25225908 0.43651575 1.5355
0.2034007 0.44515145 1.5337501
0.22907048 0.44355053 1.5320001
0.23526447 0.44276035 1.5343333
0.24424461 0.44267508 1.5320001
0.25241524 0.44209146 1.5320001
0.20586003 0.45489568 1.5330002
0.20667985 0.46454751 1.5355
0.20080288 0.47928861 1.539
0.20572573 0.49461719 1.5320001
0.26554671 0.49461716 1.5320001
0.27284193 0.49753526 1.5320001
0.26992384 0.50045335 1.5320001
0.28305525 0.50045335 1.5320001
0.17946286 0.51504385 1.5320001
0.18028288 0.51446575 1.539
0.17946286 0.52233911 1.5320001
0.18028288 0.52912289 1.539
0.18028288 0.53205431 1.539
0.18718144 0.55716717 1.5355
0.19200858 0.56136858 1.539
0.19877145 0.38576382 1.5460001
0.20367938 0.38625464 1.5460002
0.19818251 0.3937147 1.5460001
0.2031886 0.39459813 1.5460002
0.2488324 0.39459813 1.5460001
0.19877145 0.40490478 1.5460002
0.2031886 0.40490481 1.5460002
0.21594922 0.40686798 1.5460002
0.23999812 0.40637717 1.5460001
0.24546698 0.40574616 1.5460002
0.19877145 0.41962859 1.5460001
0.20466097 0.41331843 1.5460002
0.21447684 0.41275746 1.5460002
0.22527429 0.41289774 1.5460002
0.23616993 0.41315013 1.5460004
0.24588765 0.41289774 1.5460002
0.25177717 0.41570228 1.5460002
0.19877145 0.42551813 1.5460002
0.25177717 0.42846289 1.5460001
0.19877145 0.4343524 1.5460002
0.25324953 0.4343524 1.5460001
0.19877145 0.44171432 1.5460001
0.2017162 0.45202097 1.5460001
0.20466097 0.46380001 1.5460001
0.20171621 0.47557911 1.5460002
0.2017162 0.48441336 1.5460001
0.18993716 0.50797147 1.5460001
0.1781581 0.52269524 1.5460001
0.20361558 0.37617117 1.5530002
0.19720636 0.38504547 1.5530002
0.20516506 0.38391849 1.5530002
0.21446192 0.38780633 1.5530001
0.22185716 0.38751048 1.5530001
0.23516859 0.38603145 1.5530001
0.1949385 0.39549735 1.5530001
0.20854573 0.39490575 1.5530002
0.21446192 0.39490575 1.5530002
0.22422364 0.39490578 1.5530003
0.23615462 0.39589179 1.5530002
0.24330336 0.39638478 1.5530001
0.25291717 0.39786384 1.5530001
0.19671334 0.40525907 1.5530001
0.20854573 0.40525907 1.5530001
0.21409217 0.40341026 1.5530002
0.22544913 0.40483648 1.5530001
0.23576021 0.40585071 1.5530003
0.24573323 0.40208969 1.5530002
0.25291717 0.40525907 1.5530001
0.19893192 0.41487288 1.5530001
0.25291717 0.4156124 1.5530001
0.19671336 0.42448673 1.5530002
0.19671334 0.43484002 1.5530001
0.19819239 0.44519335 1.5530001
0.20262954 0.45702574 1.5530001
0.20558763 0.46590003 1.5530001
0.17896478 0.52802002 1.5530001
0.17896478 0.53393626 1.5530002
0.18192287 0.53985244 1.5530001
0.20644605 0.33777559 1.5670002
0.20445621 0.34474003 1.5670002
0.21440542 0.34672987 1.5670002
0.1969943 0.35966384 1.567
0.20445621 0.3551867 1.5670002
0.22534955 0.35727605 1.567
0.1969943 0.36563337 1.5670002
0.20445621 0.3656334 1.5670002
0.22534955 0.3633948 1.567
0.23131907 0.36264861 1.567
0.19592288 0.37514311 1.5656003
0.20460236 0.37444758 1.5619093
0.21490288 0.37682623 1.567
0.22485228 0.37474996 1.5661252
0.23430383 0.37757242 1.567
0.2447505 0.37757242 1.567
0.19537143 0.38405716 1.5600001
0.20948572 0.38331431 1.5600001
0.21591325 0.38327554 1.5635003
0.22514601 0.38327685 1.5635003
0.23454212 0.38503861 1.563182
0.24539442 0.38506243 1.5635003
0.25249967 0.385737 1.5614001
0.22731429 0.39371431 1.5600001
0.23487794 0.39425457 1.5600002
0.2455143 0.39371428 1.5600002
0.25285646 0.39267027 1.5617501
0.19462858 0.40411431 1.5600001
0.23325716 0.40411431 1.5600001
0.19602644 0.4144136 1.56525
0.19655097 0.4228929 1.5635
0.20147145 0.47905433 1.567
0.20079646 0.48488122 1.5617501
0.20216194 0.49423751 1.5646667
0.20836763 0.32829145 1.5740001
0.22421473 0.32657826 1.5740002
0.23535049 0.32679242 1.5740002
0.24374516 0.3270922 1.5740002
0.19862384 0.33503717 1.5740001
0.20499478 0.33391288 1.5740002
0.2153632 0.33528703 1.5740002
0.22410765 0.33353812 1.5740002
0.23654974 0.3330884 1.5740002
0.24348821 0.33385938 1.5740002
0.19664782 0.34518984 1.5740004
0.20237145 0.34028384 1.5740001
0.2140307 0.34361508 1.5740002
0.22421473 0.3452093 1.5740001
0.23235239 0.34927812 1.5740001
0.24359524 0.34440622 1.5740002
0.25034097 0.34028384 1.5740001
0.19637525 0.35527432 1.5740002
0.21436383 0.35527432 1.5740002
0.2246906 0.35460806 1.5740002
0.23535047 0.35527432 1.5740002
0.24434477 0.35527435 1.5740002
0.25034097 0.35677338 1.5740001
0.19187811 0.3642686 1.5740002
0.21436381 0.36426857 1.5740002
0.22285843 0.36476827 1.5740002
0.23572525 0.36426857 1.5740002
0.24434477 0.36426857 1.5740002
0.250341 0.36426863 1.5740001
0.19137841 0.37476194 1.5740002
0.21473858 0.37288812 1.5740002
0.22421472 0.37197798 1.5740002
0.2353505 0.37435311 1.5740004
0.24461731 0.37435308 1.5740004
0.25034097 0.37326288 1.5740001
0.19217792 0.38585487 1.5740002
0.23535049 0.38225716 1.5740001
0.2450943 0.38300669 1.5740001
0.25333905 0.38225716 1.5740001
0.19337715 0.3927505 1.5740001
0.19637525 0.42273146 1.5740001
0.19637525 0.43172574 1.5740001
0.20528705 0.32887754 1.5826
0.2164723 0.32713348 1.5845556
0.22472732 0.32276383 1.5836668
0.23218118 0.3243309 1.5810002
0.19523048 0.33611685 1.585
0.21330953 0.3337667 1.5810001
0.22435144 0.33728004 1.5810001
0.23338573 0.33728004 1.5810002
0.24844287 0.33728004 1.5810001
0.25145429 0.33878574 1.5810001
0.18916668 0.34655336 1.5890001
0.19202153 0.3433446 1.5826002
0.23530211 0.34453484 1.5810003
0.24643527 0.34581241 1.5810001
0.25209048 0.34719431 1.585
0.18793382 0.35398525 1.585
0.19122572 0.35534862 1.5810001
0.23790288 0.35083145 1.5810001
0.24844287 0.35083145 1.5810001
0.25367653 0.35464066 1.5823334
0.18818039 0.36578578 1.5858002
0.25521857 0.3658886 1.5810001
0.18717715 0.37536702 1.5850003
0.25583112 0.37467682 1.5863335
0.18732533 0.38565025 1.5844287
0.19122572 0.38395718 1.5810001
0.25690764 0.38460478 1.5836668
0.18765335 0.39346668 1.5890001
0.19255207 0.39667082 1.5836668
0.19355589 0.40269876 1.5836668
0.19522001 0.41465336 1.5890001
0.19522001 0.42524669 1.5890001
0.19522001 0.43130001 1.5890001
0.20368001 0.32984003 1.5960001
0.21128002 0.32680002 1.5960001
0.19912001 0.33288002 1.5960001
0.18696001 0.34504002 1.5960001
0.19000001 0.34504002 1.5960001
0.18696001 0.35416001 1.5960001
0.18696001 0.36024001 1.5960001
0.18696001 0.37544003 1.5960001
0.18392001 0.38152003 1.5960001
0.25992003 0.38456002 1.5960001
0.18696001 0.39672002 1.5960001
0.19000001 0.39976004 1.5960001
0.19304001 0.40736002 1.5960001
0.20915335 0.32823336 1.603
0.21526001 0.32823336 1.603
0.19541335 0.33586669 1.603
0.18778001 0.34655336 1.603
0.19083335 0.34044668 1.603
0.18472669 0.35724002 1.603
0.18676224 0.36487335 1.603
0.18472669 0.37403339 1.603
0.18472669 0.38522893 1.603
0.19514099 0.33649081 1.6133335
0.20099144 0.33294001 1.6110001
0.18721366 0.34620985 1.6156667
