# .PCD v0.7 - Point Cloud Data file format
VERSION 0.7
FIELDS x y z
SIZE 4 4 4
TYPE F F F
COUNT 1 1 1
WIDTH 441
HEIGHT 1
VIEWPOINT 0 0 0 1 0 0 0
POINTS 441
DATA ascii
0.12765144 0.33992574 1.506
0.13482288 0.33992574 1.506
0.13338858 0.34451544 1.506
0.12875335 0.31971335 1.5190001
0.12875335 0.32550001 1.5190001
0.13396135 0.32723603 1.5190001
0.12788168 0.33740503 1.5172501
0.13447002 0.33556896 1.5155001
0.14032668 0.33562669 1.5190001
0.12701002 0.34639674 1.5155001
0.13638858 0.3478629 1.5120002
0.14322001 0.34575337 1.5190001
0.12632 0.35352805 1.5176001
0.13483337 0.35426956 1.5130001
0.14249668 0.35515672 1.5190001
0.12875335 0.36022002 1.5190001
0.13454002 0.36166668 1.5190001
0.14032668 0.36166668 1.5190001
0.12519525 0.32330003 1.5250001
0.13507144 0.32388097 1.5250001
0.14088097 0.32678574 1.5250001
0.12732542 0.3355 1.5250001
0.1379762 0.33259526 1.5250001
0.14088096 0.33259526 1.5250001
0.12345239 0.34421432 1.5250001
0.12417857 0.35583335 1.5250001
0.12635715 0.3640635 1.5250001
0.13507144 0.36745244 1.5250001
0.14281748 0.36454767 1.5250001
0.12926191 0.37035716 1.5250001
0.13507144 0.37035716 1.5250001
0.12645081 0.31758603 1.5320001
0.13338001 0.31806001 1.539
0.11872286 0.32832003 1.539
0.12212723 0.32596803 1.5376
0.13664706 0.32157469 1.5362
0.14364001 0.32538861 1.539
0.10992858 0.33858001 1.539
0.11676858 0.33662575 1.539
0.12387926 0.33495507 1.5343333
0.14477572 0.33634099 1.5355
0.10846286 0.34297717 1.539
0.11579144 0.34444287 1.539
0.1212854 0.34339401 1.5343335
0.14661556 0.34632099 1.5343335
0.11704776 0.35323721 1.5390002
0.12165429 0.35470289 1.539
0.14758828 0.35509306 1.5343335
0.1522249 0.35407475 1.5390002
0.11872287 0.36496291 1.539
0.12318381 0.36663336 1.5362
0.14680263 0.36518028 1.5337501
0.15422574 0.3656143 1.539
0.10758344 0.37844747 1.539
0.11652429 0.3766886 1.539
0.12498024 0.37544483 1.5349166
0.13569143 0.37643433 1.5320001
0.14496201 0.37533221 1.5374445
0.15578452 0.37459472 1.5389999
0.16464859 0.37571144 1.539
0.17442 0.37962002 1.539
0.10797429 0.38352859 1.539
0.11725715 0.38255146 1.539
0.12458573 0.38255146 1.539
0.15829715 0.38255146 1.539
0.16562574 0.38255149 1.539
0.17148858 0.38255146 1.539
0.12809715 0.29153144 1.5460001
0.11926287 0.31950668 1.5460001
0.12368001 0.31803429 1.5460001
0.13766763 0.31803429 1.5460001
0.14380255 0.31852508 1.5460002
0.15165524 0.31950668 1.5460001
0.11484572 0.32613239 1.5460002
0.14723811 0.32466 1.5460001
0.15312763 0.32245144 1.5460001
0.10650223 0.33619368 1.5460002
0.11300524 0.33386239 1.5460002
0.098649532 0.34895432 1.5460001
0.10421184 0.34502792 1.5460002
0.11042858 0.34895432 1.5460001
0.14871049 0.34012002 1.5460001
0.15312763 0.34895432 1.5460001
0.1781581 0.34895432 1.5460001
0.18110287 0.34895432 1.5460001
0.095704779 0.35484388 1.5460002
0.10512801 0.35307696 1.5460001
0.11278439 0.35543278 1.5460001
0.15754478 0.35484383 1.5460002
0.16595837 0.35568517 1.5460002
0.17521334 0.35484385 1.5460002
0.18367952 0.35521194 1.5460002
0.093937911 0.36367813 1.5460001
0.10453904 0.3666229 1.5460002
0.11447763 0.36588669 1.5460002
0.15656319 0.36171496 1.5460002
0.16520116 0.36485606 1.5460001
0.17521334 0.36515054 1.5460002
0.18404762 0.36515054 1.5460002
0.095704772 0.3754572 1.5460002
0.10417096 0.37508908 1.5460002
0.11337334 0.37398478 1.5460002
0.16932383 0.37545717 1.5460002
0.17521334 0.3754572 1.5460002
0.18362696 0.37461582 1.5460002
0.095704764 0.38392335 1.5460002
0.1027722 0.38488039 1.5460001
0.11455125 0.38664725 1.5460001
0.1244162 0.38576382 1.5460001
0.1325143 0.38429144 1.5460001
0.14871049 0.38281906 1.5460001
0.15361843 0.38232827 1.5460002
0.18110287 0.3813467 1.5460001
0.10453906 0.39018101 1.5460002
0.11484572 0.39018098 1.5460001
0.12645857 0.29507005 1.5530001
0.13163525 0.29433048 1.5530001
0.11980286 0.30024669 1.5530001
0.1271981 0.30172575 1.5530001
0.13385382 0.30098623 1.5530001
0.14389022 0.3057403 1.5530002
0.15234192 0.30912098 1.5530001
0.11625316 0.31740364 1.5530001
0.12497953 0.31577668 1.5530001
0.13755144 0.31503716 1.5530001
0.14642572 0.31503716 1.5530001
0.15234192 0.3135581 1.5530001
0.10649143 0.32834858 1.5530001
0.11388668 0.3224324 1.5530002
0.14938381 0.32391146 1.5530001
0.15530001 0.32834861 1.5530002
0.10402636 0.3347578 1.5530002
0.14938381 0.33574384 1.5530002
0.15382096 0.33574387 1.5530002
0.099096194 0.34609717 1.5530001
0.10205429 0.34166002 1.5530001
0.14938381 0.34609717 1.5530001
0.15382096 0.34461808 1.5530002
0.17541507 0.3469846 1.5530001
0.18340191 0.3475762 1.5530001
0.085045248 0.35866904 1.5530001
0.092810243 0.35423192 1.5530002
0.10427286 0.35866904 1.5530001
0.11092858 0.35940859 1.5530001
0.15825811 0.35053432 1.5530001
0.16417429 0.35349244 1.5530002
0.17304859 0.35053432 1.5530002
0.18685304 0.35152036 1.5530002
0.086277783 0.36335272 1.5530002
0.094659045 0.36606431 1.5530002
0.10501239 0.36384571 1.5530001
0.11166811 0.3653248 1.5530001
0.087263815 0.37419909 1.5530002
0.093180001 0.37301585 1.5530001
0.086277783 0.38110131 1.5530002
0.091405153 0.38543984 1.5530001
0.12867714 0.38898954 1.5530001
0.13459335 0.38800353 1.5530002
0.14494666 0.38677096 1.5530001
0.15234192 0.38603145 1.5530001
0.18636002 0.38011527 1.5530001
0.099096194 0.39194766 1.5530001
0.12424001 0.39194766 1.5530001
0.11789811 0.28653717 1.567
0.12557414 0.28887194 1.5635002
0.11478168 0.29515979 1.5652502
0.12169348 0.29499388 1.5610002
0.13564561 0.29507679 1.5608752
0.14461875 0.29668602 1.5654446
0.15334216 0.29735696 1.5670002
0.10894382 0.30593812 1.5670002
0.11473779 0.30548254 1.5646669
0.12373879 0.30584493 1.5600002
0.13591564 0.30663031 1.5614001
0.14530288 0.30457145 1.5600001
0.15318118 0.30487365 1.5615557
0.10778891 0.31690192 1.5646667
0.11474224 0.31441912 1.5646669
0.12494168 0.31234837 1.5617502
0.13490507 0.31507918 1.5635003
0.14352 0.31408003 1.5600001
0.15005715 0.31645715 1.5600001
0.10571795 0.32361862 1.5635002
0.15897144 0.33577144 1.5600001
0.16431506 0.33667699 1.5656
0.17460859 0.33877051 1.567
0.087853819 0.34843385 1.5635
0.094402961 0.34664699 1.5635003
0.15897144 0.34468573 1.5600001
0.16503873 0.34494019 1.5611668
0.17465688 0.34365806 1.5621003
0.18294454 0.34432456 1.5617501
0.084479265 0.35462195 1.5623336
0.079096198 0.36563337 1.5670002
0.084091425 0.36756572 1.5600001
0.083092526 0.37551296 1.5620002
0.083200008 0.38331431 1.5600001
0.11842477 0.25783622 1.5740001
0.12442096 0.25633717 1.5740002
0.13041715 0.25633717 1.5740001
0.11767524 0.26533145 1.5740001
0.12442096 0.26533148 1.5740002
0.13341525 0.26533145 1.5740002
0.14578238 0.26570618 1.5740002
0.1544019 0.26533145 1.5740002
0.16039811 0.26233336 1.5740001
0.11642604 0.27482542 1.5740002
0.12292191 0.27132764 1.5740001
0.1457824 0.27470049 1.5740002
0.15260306 0.27372611 1.5740002
0.16039811 0.27432573 1.5740001
0.10943048 0.28481907 1.5740001
0.11482705 0.28421947 1.5740002
0.12517048 0.28706765 1.5740001
0.13641334 0.28631812 1.5740002
0.14540765 0.28481907 1.5740002
0.15200344 0.2857185 1.5740002
0.10823125 0.29591203 1.5740002
0.13791239 0.29231429 1.5740001
0.14540765 0.29231429 1.5740001
0.15440191 0.29331368 1.5740001
0.10593271 0.30430672 1.5740002
0.10471919 0.31415758 1.5740002
0.16789335 0.33728573 1.5740001
0.1753886 0.33728573 1.5740001
0.086944766 0.34628004 1.5740001
0.094440013 0.34328192 1.5740001
0.1004362 0.34178287 1.5740001
0.17538859 0.34028384 1.5740001
0.18138477 0.34028384 1.5740001
0.079449527 0.35677338 1.5740001
0.082447626 0.35227621 1.5740001
0.077950478 0.3642686 1.5740001
0.078450166 0.37326288 1.5740001
0.082447626 0.38825336 1.5740001
0.10744667 0.24667335 1.5890001
0.11428098 0.2454139 1.5878574
0.1241332 0.24631634 1.5867145
0.13166001 0.24970001 1.5890001
0.14528 0.24970001 1.5890001
0.10806429 0.25618428 1.5870001
0.11466134 0.25437388 1.5842001
0.1249743 0.25145429 1.5810001
0.13462351 0.2546778 1.5823336
0.14469177 0.25661746 1.5881112
0.15396763 0.25812858 1.585
0.10868191 0.26567242 1.5850003
0.11375095 0.26441765 1.5820001
0.13551429 0.2604886 1.5810001
0.1428455 0.2634531 1.5830002
0.15358287 0.2604886 1.5810001
0.10799477 0.27528217 1.5860001
0.11393239 0.27454194 1.5810001
0.12540451 0.27640617 1.5810002
0.13400857 0.27554572 1.5810002
0.14078429 0.27479288 1.5810001
0.15734716 0.27629858 1.5810001
0.10690572 0.28458005 1.5810001
0.1249743 0.28307432 1.5810002
0.13400859 0.28307432 1.5810002
0.15604144 0.28569669 1.5830001
0.10590192 0.29461813 1.5810001
0.15810001 0.2921086 1.5810001
0.10389429 0.3026486 1.5810001
0.1671343 0.3357743 1.5810001
0.09636572 0.34330291 1.5810001
0.077795252 0.35685432 1.5810001
0.082814291 0.35083145 1.5810001
0.076791435 0.36438286 1.5810001
0.076791435 0.37492287 1.5810001
0.079802863 0.38395721 1.5810001
0.086110167 0.39431715 1.5863335
0.10792001 0.22952001 1.5960001
0.11476001 0.22876002 1.5960001
0.12160001 0.22952001 1.5960001
0.13832001 0.22344002 1.5960001
0.10792001 0.23560002 1.5960001
0.11400001 0.23560002 1.596
0.12225144 0.23603432 1.5960001
0.13528001 0.23712002 1.5960001
0.14440002 0.23559999 1.596
0.15169601 0.23620801 1.5960001
0.10564001 0.24396001 1.5960001
0.12572573 0.24385145 1.5960001
0.13528003 0.24472001 1.596
0.14440002 0.24472004 1.596
0.15314001 0.24434002 1.596
0.10488001 0.25536004 1.5960001
0.13730669 0.25181335 1.5960001
0.14592001 0.25232002 1.5960001
0.15402667 0.25384003 1.5960001
0.10488002 0.266 1.5960001
0.10488001 0.27512002 1.5960001
0.10488002 0.28424001 1.5960001
0.10488001 0.29640001 1.5960001
0.086640008 0.34808001 1.5960001
0.082080007 0.35264003 1.5960001
0.077520005 0.38152003 1.5960001
0.14350668 0.16946001 1.603
0.14350668 0.17251335 1.603
0.11144667 0.20762669 1.603
0.13790891 0.20813558 1.603
0.14503334 0.2076267 1.603
0.15114 0.20915335 1.603
0.10621238 0.21569623 1.603
0.11450001 0.21526001 1.6029999
0.12518668 0.21678668 1.6029999
0.13625501 0.21564169 1.6029999
0.14503334 0.21526003 1.6029999
0.15236135 0.21464935 1.603
0.10534 0.22442003 1.6029999
0.11411834 0.22403835 1.6029999
0.12518668 0.22442 1.603
0.13549168 0.22442001 1.6029999
0.14503334 0.22442003 1.6029999
0.15236135 0.22442003 1.603
0.10381334 0.23510668 1.6029999
0.12845811 0.23445241 1.603
0.13587335 0.23205334 1.603
0.14503334 0.23052669 1.603
0.15480401 0.23419069 1.603
0.10228667 0.24579334 1.603
0.15724668 0.24884668 1.603
0.099233337 0.25800669 1.603
0.10228667 0.25495335 1.603
0.15724668 0.25495335 1.603
0.099233344 0.26411337 1.603
0.10228667 0.26411337 1.603
0.099233344 0.27327335 1.603
0.10228667 0.2748 1.603
0.10534 0.29464668 1.603
0.14176762 0.16796382 1.618
0.10940763 0.17720954 1.618
0.11711239 0.17566858 1.618
0.12481715 0.17566858 1.618
0.13450316 0.17500816 1.6180001
0.14195183 0.17520706 1.6166
0.10879125 0.18583888 1.618
0.11613648 0.18544868 1.6173
0.12468104 0.18471152 1.61625
0.13434306 0.18533456 1.618
0.14465329 0.18466306 1.6158125
0.15541175 0.18618636 1.6156667
0.10632573 0.19658153 1.6180001
0.1151862 0.19531573 1.618
0.12470648 0.19368516 1.6166
0.13509017 0.19467366 1.618
0.14458677 0.19534487 1.6150835
0.15526213 0.19522615 1.6141112
0.16145001 0.19373667 1.6145
0.097962856 0.20670128 1.6156667
0.10499594 0.20425983 1.6148182
0.11528572 0.20443621 1.6140001
0.12454715 0.20603764 1.6145
0.13423061 0.20499441 1.615375
0.14437453 0.20274574 1.6127501
0.15503918 0.20415704 1.6117779
0.098593481 0.2145396 1.6140001
0.10463829 0.21203831 1.6110001
0.11660571 0.21019715 1.6110001
0.12427716 0.21173143 1.6110001
0.13194858 0.21173143 1.6110001
0.15680401 0.21387945 1.6110001
0.098215111 0.2252195 1.6150001
0.15755506 0.22450326 1.6124001
0.098585151 0.23433602 1.6124001
0.15803143 0.23321144 1.6110001
0.099066436 0.24498692 1.6127501
0.098095112 0.25434628 1.6130002
0.096660003 0.26543146 1.6110001
0.097080015 0.27583051 1.618
0.099728577 0.2807743 1.6110001
0.10174306 0.28679374 1.6138
0.10170286 0.29278097 1.618
0.11769143 0.1687943 1.626
0.12543431 0.16879432 1.6260002
0.13472572 0.16879432 1.6260002
0.10607716 0.17537574 1.6260002
0.11490401 0.17374973 1.626
0.12543431 0.17189144 1.6260002
0.13317715 0.17189144 1.626
0.15124384 0.17705336 1.6260002
0.097560003 0.18737715 1.626
0.1037543 0.18428002 1.6260002
0.11304572 0.18273145 1.626
0.13162857 0.18118288 1.626
0.15330859 0.18118288 1.626
0.094462864 0.19512002 1.6260002
0.10286941 0.19401391 1.6260002
0.11924001 0.19976573 1.626
0.12543429 0.19899143 1.626
0.13266096 0.19873336 1.6260002
0.16260001 0.19976573 1.626
0.094462864 0.20472117 1.626
0.11924001 0.20286287 1.626
0.12543431 0.20286289 1.6260002
0.13162857 0.20286287 1.626
0.16260001 0.20905715 1.626
0.16260001 0.2121543 1.626
0.094462864 0.23228574 1.626
0.097560011 0.24312572 1.6260002
0.094462864 0.26480573 1.6260002
0.094462864 0.27100003 1.626
0.097560003 0.28338858 1.626
0.10737715 0.16962478 1.6340001
0.11484688 0.16775735 1.6340001
0.12605144 0.1665124 1.6340002
0.1338324 0.16651239 1.6340001
0.098040007 0.17896192 1.6340001
0.10270858 0.17429334 1.6340001
0.094538569 0.18479763 1.6339999
0.15717524 0.18207429 1.6340001
0.088702872 0.19452381 1.6340002
0.088702865 0.20074858 1.6340001
0.091815241 0.20697334 1.6340001
0.16443747 0.20489845 1.6340002
0.093682669 0.21444307 1.6340001
0.16340001 0.21786669 1.6340001
0.094927631 0.22564763 1.6340002
0.093371436 0.23498479 1.6340001
0.094927624 0.24276572 1.6340001
0.094927624 0.25988382 1.6340001
0.091815241 0.26766479 1.6340001
0.10836286 0.16804096 1.649
0.11150382 0.16804096 1.649
0.12659144 0.16410001 1.641
0.096531115 0.17793176 1.6436666
0.10340382 0.17232955 1.645
0.089300007 0.18799621 1.645
0.092658103 0.18060477 1.649
0.089082859 0.20629716 1.641
0.16722572 0.2047343 1.641
0.089517146 0.21515527 1.649
0.092208579 0.21723716 1.641
0.16749749 0.21446447 1.6436666
0.092208579 0.22505143 1.641
0.16410001 0.22505143 1.641
0.092208579 0.23599145 1.641
0.099420004 0.17516859 1.6570001
0.1025762 0.17201239 1.6570001
0.10624287 0.16967145 1.6650001
