# .PCD v0.7 - Point Cloud Data file format
VERSION 0.7
FIELDS x y z rgb
SIZE 4 4 4 4
TYPE F F F F
COUNT 1 1 1 1
WIDTH 1061
HEIGHT 1
VIEWPOINT 0 0 0 1 0 0 0
POINTS 1061
DATA ascii
-0.072111435 -0.61831719 1.6110001 2.4885842e-39
-0.063425936 -0.61634147 1.6156667 2.6726153e-39
-0.055056553 -0.61604512 1.617125 3.0406747e-39
-0.046228576 -0.61638099 1.618 3.1317928e-39
0.78218001 -0.61476123 1.6127501 7.5399008e-39
0.78510565 -0.60581726 1.6145 7.9090434e-39
0.78680038 -0.59753656 1.6156667 8.0927242e-39
0.79119122 -0.59262502 1.61625 7.9108175e-39
-0.3789686 -0.58763146 1.6110001 2.3927914e-39
0.79345673 -0.58365893 1.6154547 7.1757972e-39
0.79601955 -0.57575673 1.6173 3.589164e-39
0.80386353 -0.57272071 1.618 2.5800273e-39
-0.38360286 -0.56330764 1.6127501 1.7502975e-39
-0.3789686 -0.5661515 1.6110001 1.7499261e-39
0.79850066 -0.56453431 1.61625 2.6729628e-39
0.80658245 -0.56530142 1.61625 2.6736971e-39
0.81178546 -0.56184834 1.6133335 3.4998452e-39
0.84692591 -0.56410575 1.6110001 6.8894853e-39
0.85459733 -0.56308287 1.6110002 7.1657317e-39
0.86198109 -0.56389397 1.6133335 7.442313e-39
-0.39253661 -0.55299073 1.6138 1.8414197e-39
-0.38701162 -0.55690789 1.6168334 1.7492213e-39
0.79872704 -0.55833846 1.618 2.7655186e-39
0.80577654 -0.55753183 1.6156667 2.7651725e-39
0.81490213 -0.55534506 1.6140001 3.5909506e-39
0.82287914 -0.55129385 1.6150001 4.7837765e-39
0.83634526 -0.55192703 1.6130002 6.3402926e-39
0.84576905 -0.55372393 1.6154547 6.615069e-39
0.85517132 -0.55410266 1.6173637 7.3493971e-39
0.8629334 -0.55782479 1.618 7.8092654e-39
-0.39537895 -0.54460967 1.615375 1.5655377e-39
0.82723576 -0.54738909 1.6145 5.6978127e-39
0.83428186 -0.5454039 1.6172223 6.5225357e-39
0.84642327 -0.54483676 1.6180001 6.9831201e-39
0.85445809 -0.54626763 1.618 7.5337911e-39
-0.40227288 -0.5338034 1.6121668 2.2995028e-39
-0.39790457 -0.53720742 1.61625 1.3811492e-39
-0.50080955 -0.52238292 1.618 1.7632415e-38
-0.49404004 -0.52012289 1.6110001 9.2937113e-39
-0.42499718 -0.52012289 1.6110001 2.2991496e-39
-0.41536635 -0.52360529 1.6133333 1.931802e-39
-0.40653846 -0.52786839 1.6148889 3.1252991e-39
-0.49464577 -0.51827371 1.618 1.2132347e-38
-0.48454377 -0.51311487 1.6131001 6.5242929e-39
-0.47580606 -0.51114136 1.6133335 7.0756646e-39
-0.4607448 -0.51005524 1.618 7.2586195e-39
-0.45493394 -0.51180118 1.6138 5.1464087e-39
-0.44476992 -0.51359093 1.6142309 3.8607202e-39
-0.43514618 -0.51355815 1.6145 5.1456885e-39
-0.4258475 -0.51516223 1.6169232 5.2375184e-39
-0.47204906 -0.507411 1.6145 7.4434102e-39
-0.46487093 -0.50401646 1.6148182 7.2586294e-39
-0.45519739 -0.50574064 1.618 7.3493929e-39
-0.43300766 -0.50697339 1.618 7.4419542e-39
-0.46382669 -0.49772766 1.618 7.8089319e-39
-0.61252856 0.16411144 1.618 1.5990196e-38
-0.60744351 0.1654983 1.618 1.7632415e-38
-0.6071353 0.17104572 1.618 1.7632415e-38
0.8336553 0.18491429 1.618 1.7632415e-38
0.78588575 0.20802858 1.618 1.7632415e-38
0.79127908 0.20571716 1.618 1.7632415e-38
0.77818102 0.21111049 1.618 1.7632415e-38
0.7857753 0.2143905 1.6156667 1.7632415e-38
0.79098445 0.2132027 1.6152 1.7632415e-38
0.75198483 0.22960192 1.618 1.7632415e-38
0.7673943 0.22960192 1.618 1.7632415e-38
0.77586961 0.22497906 1.618 1.7632415e-38
0.78126293 0.22035621 1.618 1.7632415e-38
0.74412864 0.23167716 1.6110001 1.7632415e-38
0.76499492 0.23413201 1.6110001 1.7632415e-38
0.7727198 0.23397312 1.61625 1.7632415e-38
0.73185432 0.24702002 1.6110001 1.7632415e-38
0.69805145 0.28815812 1.618 1.7632415e-38
0.70290577 0.28718168 1.6150001 1.7632415e-38
0.69745719 0.29565373 1.6152 1.508445e-38
0.70191813 0.29291478 1.6145 1.7632415e-38
-0.80591816 0.30973145 1.618 1.7632415e-38
-0.79581076 0.30785549 1.61625 1.7632415e-38
-0.78417909 0.30444527 1.6145 1.7632415e-38
-0.77537668 0.30588764 1.6140001 1.7632415e-38
-0.73195243 0.30973145 1.618 1.7632415e-38
-0.72732955 0.30819049 1.618 1.7632415e-38
-0.67048287 0.30685717 1.6110001 1.7632415e-38
-0.66432256 0.30615368 1.6117779 1.7632415e-38
-0.65695941 0.30767688 1.618 1.7632415e-38
0.69394231 0.30254036 1.618 1.7632415e-38
0.81824577 0.30356765 1.618 1.7632415e-38
0.86447436 0.30202669 1.618 1.7632415e-38
-0.81470579 0.31759715 1.6110001 1.7632415e-38
-0.80585849 0.31613839 1.6170001 1.7632415e-38
-0.79836768 0.31473756 1.6152 1.7632415e-38
-0.77328008 0.31452858 1.6110001 1.7632415e-38
-0.74530739 0.31794989 1.618 1.7632415e-38
-0.73492289 0.31401718 1.6110001 1.7632415e-38
-0.72725147 0.31606287 1.6110001 1.7632415e-38
-0.71773893 0.3151423 1.6110001 1.7632415e-38
-0.68264192 0.31897718 1.618 1.7632415e-38
-0.67353278 0.31570476 1.6117779 1.7632415e-38
-0.66432303 0.31431586 1.6118751 1.7632415e-38
-0.65594304 0.31521058 1.6145 1.7632415e-38
-0.64780104 0.31646702 1.6156667 1.7632415e-38
-0.90323466 0.32774511 1.6156667 2.8534206e-39
-0.89295435 0.32680288 1.6110001 2.7622984e-39
-0.83004862 0.32680288 1.6110001 1.7632415e-38
-0.82595724 0.3252686 1.6110001 1.7632415e-38
-0.80591816 0.32514098 1.618 1.7632415e-38
-0.7901572 0.32833716 1.6110001 1.7632415e-38
-0.78555435 0.32987145 1.6110001 1.7632415e-38
-0.77186209 0.32521388 1.6140001 1.7632415e-38
-0.76893526 0.32514098 1.618 1.7632415e-38
-0.74505049 0.32591146 1.618 1.7632415e-38
-0.73492295 0.32512912 1.6110001 1.7632415e-38
-0.72725147 0.3252686 1.6110001 1.7632415e-38
-0.71804583 0.32373431 1.6110001 1.7632415e-38
-0.6730057 0.32509372 1.6142309 1.7632415e-38
-0.66332293 0.32578003 1.6110001 1.7632415e-38
-0.65514004 0.32526863 1.6110001 1.7632415e-38
-0.64743537 0.32518739 1.6154547 1.7632415e-38
-0.90193021 0.33649528 1.6133335 2.854466e-39
-0.87217909 0.33130479 1.618 3.4072656e-39
-0.86284411 0.33289963 1.6138 3.2214563e-39
-0.85477573 0.33466849 1.6130002 1.4699083e-38
-0.84589845 0.33637759 1.6170001 1.7632415e-38
-0.83526075 0.33573064 1.6160001 1.7632415e-38
-0.82391155 0.33294004 1.6110001 1.7632415e-38
-0.80417478 0.33827287 1.6145 1.7632415e-38
-0.79541761 0.33688536 1.6110002 1.6719824e-38
-0.77495003 0.3336567 1.6145 1.7632415e-38
-0.76571995 0.33610827 1.6141819 1.6993171e-38
-0.75572717 0.33570752 1.6180001 1.7632415e-38
-0.74530739 0.33438671 1.618 1.7632415e-38
-0.73556155 0.33568689 1.6124001 1.3433923e-38
-0.72677583 0.33468622 1.6145 1.3152303e-38
-0.71962482 0.33746859 1.618 6.4537375e-39
-0.68264192 0.33592764 1.618 1.7632415e-38
-0.67455292 0.33522686 1.6121668 1.7632415e-38
-0.66396219 0.33562502 1.6110001 1.7632415e-38
-0.65514004 0.33600861 1.6110001 1.7632415e-38
-0.64659613 0.33469629 1.6154547 1.140058e-38
0.19514099 0.33649081 1.6133335 1.7632415e-38
0.20099144 0.33294001 1.6110001 1.7632415e-38
0.77201718 0.33746859 1.618 1.7632415e-38
-0.84290099 0.34055051 1.618 1.7632415e-38
-0.83174431 0.34540519 1.6160001 1.3520724e-38
-0.82582605 0.34710643 1.61625 1.2334065e-38
-0.81470579 0.34828287 1.6110001 1.1149147e-38
-0.80550003 0.34214574 1.6110001 1.7632415e-38
-0.79322577 0.34214577 1.6110001 1.1609815e-38
-0.77174574 0.34828287 1.6110001 7.2828116e-39
-0.76364011 0.34161401 1.6133335 1.3436451e-38
-0.75496835 0.34227002 1.6145 1.2050999e-38
-0.74520421 0.34212542 1.6133335 9.7475722e-39
-0.72270674 0.3436324 1.618 6.3374704e-39
-0.71839207 0.34486517 1.618 7.9166273e-39
-0.68469656 0.345687 1.618 1.7632415e-38
-0.67355144 0.34559786 1.6110001 1.7632415e-38
-0.66364068 0.34606436 1.6117779 1.7632415e-38
-0.65511233 0.34501988 1.6118751 1.0482251e-38
-0.64595366 0.34498066 1.6156667 3.7746454e-39
-0.63644987 0.34620371 1.6172223 6.6323568e-39
0.18721366 0.34620985 1.6156667 1.7632415e-38
0.76893526 0.34671432 1.618 1.7632415e-38
0.77479094 0.34609792 1.618 1.7632415e-38
0.78126293 0.3436324 1.618 1.7632415e-38
-0.830311 0.3521148 1.6145 1.0598204e-38
-0.8244096 0.35287812 1.618 1.069003e-38
-0.78340638 0.35564747 1.6110001 4.5143587e-39
-0.77700472 0.35467637 1.6145 5.981556e-39
-0.71345198 0.35519335 1.6145 2.7648165e-39
-0.68264192 0.35596001 1.618 1.7632415e-38
-0.67477888 0.3531926 1.6110001 1.7632415e-38
-0.66536862 0.35237432 1.6110001 1.7632415e-38
-0.65514004 0.35135144 1.6110001 9.4738608e-39
-0.64516723 0.35211858 1.6110001 4.1427049e-39
-0.63542259 0.35454726 1.6115835 4.9742718e-39
-0.47307241 0.35904193 1.618 1.7632415e-38
-0.46795717 0.3574886 1.6110001 7.9216663e-39
-0.015409525 0.35904193 1.618 1.7632415e-38
0.035441905 0.35904193 1.618 1.7632415e-38
0.18515907 0.35441941 1.6156667 1.7632415e-38
0.61638099 0.35750097 1.618 1.3872223e-38
0.76833558 0.35647178 1.6156667 1.7632415e-38
0.7730844 0.35380325 1.6138 1.5616004e-38
-0.77686012 0.36260289 1.6110001 5.715839e-39
-0.73492289 0.36976287 1.6110001 4.7019869e-39
-0.71192002 0.36674669 1.618 4.1480536e-39
-0.70575625 0.36674669 1.618 4.1469901e-39
-0.68510747 0.36582217 1.618 1.7632415e-38
-0.67600638 0.36485317 1.6110001 1.7632415e-38
-0.63280737 0.36094883 1.6127501 5.7100264e-39
-0.47461337 0.36212385 1.618 1.7632415e-38
-0.4645049 0.36448169 1.6135455 7.5492797e-39
-0.45766288 0.36828765 1.618 1.7632415e-38
-0.020802859 0.36597621 1.618 1.7632415e-38
-0.014112382 0.36545733 1.6141819 1.7632415e-38
-0.0050631301 0.3660863 1.6180001 1.7632415e-38
0.035001636 0.36520579 1.6180001 1.7632415e-38
0.043727145 0.3666943 1.6110001 1.7632415e-38
0.055474289 0.36828765 1.618 1.7632415e-38
0.18451098 0.36594671 1.6145 1.7632415e-38
0.56861144 0.36828765 1.618 1.7632415e-38
0.64874101 0.36828765 1.618 1.7632415e-38
0.6538775 0.36726034 1.618 1.7632415e-38
0.66312325 0.36726034 1.618 1.7632415e-38
0.75660771 0.36674672 1.618 1.077106e-38
0.76616746 0.36529151 1.6145002 1.085533e-38
0.77174574 0.36055717 1.6110001 7.7267878e-39
-0.74719727 0.37590003 1.6110001 4.6047676e-39
-0.73492289 0.37283146 1.6110001 4.7009149e-39
-0.71192002 0.37445146 1.618 5.9858706e-39
-0.70421535 0.37445146 1.618 4.2359487e-39
-0.69188768 0.37445146 1.618 1.7632415e-38
-0.6861642 0.37357089 1.6180001 1.7632415e-38
-0.67956007 0.37445146 1.618 1.7632415e-38
-0.46629223 0.37260228 1.618 7.9998013e-39
-0.069342859 0.37753335 1.618 1.7632415e-38
-0.032360002 0.37753335 1.618 1.7632415e-38
-0.02423498 0.37473163 1.618 1.7632415e-38
-0.013824128 0.37541714 1.6133333 1.7632415e-38
-0.0046228576 0.37445146 1.618 1.7632415e-38
0.035056666 0.37406623 1.618 1.7632415e-38
0.04366032 0.37547874 1.618 1.7632415e-38
0.055474289 0.37136954 1.618 1.7632415e-38
0.18337335 0.37599242 1.618 1.7632415e-38
0.38677907 0.37753335 1.618 1.7632415e-38
0.39294288 0.37599242 1.618 1.7632415e-38
0.56707048 0.37136954 1.618 1.7632415e-38
0.57323432 0.37136954 1.618 1.7632415e-38
0.64874101 0.37599242 1.618 1.7632415e-38
0.65490484 0.37599239 1.618 1.7632415e-38
0.66376531 0.37483668 1.618 1.7632415e-38
0.71551406 0.37801179 1.6156667 8.0127633e-39
0.73503441 0.375332 1.6180001 1.3875824e-38
0.74502987 0.37578654 1.617125 8.7531996e-39
0.7554056 0.37479892 1.6174617 9.7673502e-39
0.76483095 0.374724 1.6152 8.3840528e-39
0.84539145 0.37743434 1.6110001 1.0858945e-38
0.85306293 0.37743431 1.6110001 6.6305492e-39
-0.75128865 0.3861286 1.6110001 5.2490665e-39
-0.74719721 0.38203716 1.6110001 4.2385215e-39
-0.71438557 0.3867791 1.618 5.1600882e-39
-0.70421535 0.38481787 1.618 4.4221546e-39
-0.69558591 0.3861627 1.618 4.8849433e-39
-0.68880576 0.38523811 1.618 1.4534167e-38
-0.64686769 0.38412923 1.6133335 4.8853496e-39
-0.63979721 0.38203716 1.6110001 5.3452208e-39
-0.50235051 0.38677907 1.618 1.7632415e-38
-0.49485362 0.38537699 1.6164445 1.7632415e-38
-0.48597679 0.3882992 1.6170001 1.7632415e-38
-0.47615433 0.38832006 1.618 1.7632415e-38
-0.46690863 0.38986099 1.618 1.4609065e-38
-0.42294264 0.38603538 1.6148889 1.7632415e-38
-0.41538763 0.38767451 1.6166 1.7632415e-38
-0.23268382 0.38215622 1.618 1.7632415e-38
-0.22343811 0.38677907 1.618 1.7632415e-38
-0.21727429 0.38986099 1.618 1.7632415e-38
-0.077561274 0.38472447 1.618 1.7632415e-38
-0.068572387 0.38446763 1.618 1.7632415e-38
-0.050851431 0.38832003 1.618 1.7632415e-38
-0.032360002 0.38215622 1.618 1.7632415e-38
-0.024963429 0.38492993 1.6180001 1.7632415e-38
-0.013826072 0.38457754 1.613625 1.7632415e-38
-0.0046161907 0.38467699 1.6156667 1.7632415e-38
0.0042737569 0.38587442 1.6156667 1.7632415e-38
0.014530477 0.38587588 1.6156667 1.7632415e-38
0.024646906 0.38663858 1.6174167 1.7632415e-38
0.034796193 0.38551718 1.6166 1.7632415e-38
0.044071242 0.38585451 1.618 1.7632415e-38
0.053248473 0.38575178 1.618 1.7632415e-38
0.061417967 0.38589853 1.6180001 1.7632415e-38
0.17778502 0.38636073 1.61625 1.7632415e-38
0.18171254 0.38430086 1.6150001 1.7632415e-38
0.26524428 0.38671622 1.6145 1.7632415e-38
0.36828765 0.38677907 1.618 1.7632415e-38
0.37753335 0.38986099 1.618 1.7632415e-38
0.38630494 0.38559371 1.6180001 1.7632415e-38
0.39574459 0.38565844 1.618 1.7632415e-38
0.519301 0.38832003 1.618 1.7632415e-38
0.52590507 0.38765964 1.6180001 1.7632415e-38
0.53286141 0.38739547 1.618 1.7632415e-38
0.56784093 0.38677907 1.618 1.7632415e-38
0.57323432 0.38523811 1.618 1.7632415e-38
0.58710289 0.38677907 1.618 1.7632415e-38
0.59429401 0.38780639 1.618 1.7632415e-38
0.60636479 0.38909051 1.618 1.7632415e-38
0.61360723 0.38801184 1.618 1.7632415e-38
0.62511307 0.38575178 1.618 1.6903123e-38
0.63333148 0.38754952 1.618 1.0672404e-38
0.64565909 0.38523817 1.618 1.7632415e-38
0.65490484 0.38523814 1.618 1.7632415e-38
0.6641506 0.38523811 1.618 1.7632415e-38
0.68731242 0.38748336 1.6145 1.7632415e-38
0.69188768 0.38986099 1.618 1.7632415e-38
0.71654248 0.38550746 1.6173637 8.0156514e-39
0.72887051 0.38986099 1.618 8.2046964e-39
0.73503435 0.38523817 1.618 8.8432345e-39
0.74349904 0.38411129 1.6147693 8.2922047e-39
0.75614899 0.38230252 1.615375 8.1088938e-39
0.84539151 0.38510576 1.6110001 7.1862355e-39
0.85459721 0.38510573 1.6110001 6.4461565e-39
0.86073434 0.38817433 1.6110001 6.0773712e-39
-0.76254004 0.39124289 1.6110001 4.4200008e-39
-0.71222728 0.39383301 1.6166 4.3306989e-39
-0.70360327 0.39752862 1.6166 4.8824293e-39
-0.69496959 0.39787394 1.618 2.5825763e-39
-0.68675113 0.3980794 1.618 1.2242611e-38
-0.67657727 0.39692828 1.6133335 1.7632415e-38
-0.66434574 0.39738002 1.6110001 1.7632415e-38
-0.62100387 0.39910668 1.618 5.3412453e-39
-0.61638099 0.39910668 1.618 5.2497657e-39
-0.6071353 0.39910668 1.618 4.6983814e-39
-0.58248007 0.39910668 1.618 1.7632415e-38
-0.51313722 0.3980794 1.618 1.7632415e-38
-0.50515288 0.3957251 1.6150001 1.7632415e-38
-0.49557433 0.39431149 1.6110001 1.7632415e-38
-0.4855321 0.39488038 1.6133335 1.7632415e-38
-0.47546762 0.39544925 1.6156667 1.7632415e-38
-0.46523702 0.39583406 1.616091 1.3963688e-38
-0.45458099 0.39910668 1.618 4.8147312e-39
-0.44577557 0.39690536 1.6180001 1.7632415e-38
-0.43454862 0.39679527 1.618 1.7632415e-38
-0.42499515 0.39573926 1.6168334 1.7632415e-38
-0.41391402 0.39545366 1.6156667 1.7632415e-38
-0.40650326 0.39725757 1.618 1.7632415e-38
-0.39294288 0.39910668 1.618 1.7632415e-38
-0.38523811 0.39910668 1.618 1.7632415e-38
-0.21419239 0.39294288 1.618 1.7632415e-38
-0.16282731 0.3980794 1.618 1.7632415e-38
-0.15871811 0.39910668 1.618 1.7632415e-38
-0.13406287 0.39910668 1.618 1.7632415e-38
-0.12789905 0.39910668 1.618 1.7632415e-38
-0.10170286 0.39910668 1.618 1.7632415e-38
-0.093381718 0.39787394 1.618 1.7632415e-38
-0.084367149 0.39640999 1.618 1.7632415e-38
-0.076387219 0.39646503 1.6180001 1.7632415e-38
-0.066260956 0.39679527 1.618 1.7632415e-38
-0.052700575 0.39725757 1.618 1.7632415e-38
-0.045714926 0.39705211 1.618 1.7632415e-38
-0.03467143 0.39756572 1.618 1.7632415e-38
-0.02557981 0.39602479 1.618 1.7632415e-38
-0.016000411 0.39387313 1.6110002 1.7632415e-38
-0.0050412249 0.39343473 1.6110002 1.7632415e-38
0.0046028569 0.39277717 1.6110001 1.7632415e-38
0.015562044 0.39343473 1.6110002 1.6629066e-38
0.026122119 0.39487958 1.6133333 1.1693386e-38
0.035356723 0.39506999 1.6141112 1.1234569e-38
0.044231549 0.39499369 1.615375 1.1692663e-38
0.053858522 0.39545074 1.6156667 1.132677e-38
0.063739434 0.39598766 1.6166 1.1144891e-38
0.10632573 0.39910668 1.618 1.7632415e-38
0.11557144 0.39910668 1.618 1.7632415e-38
0.15717715 0.39910668 1.618 1.7632415e-38
0.16642287 0.39910668 1.618 1.7632415e-38
0.17566647 0.39666986 1.6164445 1.7632415e-38
0.18143573 0.39209288 1.6145 1.7632415e-38
0.26773289 0.39354432 1.6110001 1.7632415e-38
0.27459773 0.39725754 1.618 1.7632415e-38
0.2856926 0.39787394 1.618 1.7632415e-38
0.29432192 0.39833623 1.618 1.7632415e-38
0.30356765 0.39833623 1.618 1.7632415e-38
0.3436324 0.39910668 1.618 1.7632415e-38
0.36828765 0.39294288 1.618 1.7632415e-38
0.375332 0.39646509 1.6180001 1.7632415e-38
0.38509759 0.39588088 1.6174167 1.7632415e-38
0.39583588 0.39583293 1.6172223 1.7632415e-38
0.40527052 0.39910668 1.618 1.7632415e-38
0.41143432 0.39910668 1.618 1.7632415e-38
0.42684385 0.39910668 1.618 1.7632415e-38
0.43608958 0.39910668 1.618 1.7632415e-38
0.46844956 0.39910668 1.618 1.7632415e-38
0.51673275 0.39653844 1.618 1.7632415e-38
0.52546483 0.39602479 1.618 1.7632415e-38
0.53382999 0.39558452 1.6180001 1.7632415e-38
0.54395622 0.39910668 1.618 1.7632415e-38
0.55628383 0.39756572 1.618 1.7632415e-38
0.56552958 0.39602482 1.618 1.7632415e-38
0.5751403 0.39616033 1.6173 1.7632415e-38
0.58420163 0.39544922 1.6156667 1.7632415e-38
0.59499466 0.39558768 1.6173637 1.7632415e-38
0.60559434 0.39602476 1.618 1.7632415e-38
0.61492044 0.39598763 1.6166 1.7632415e-38
0.62420869 0.39544922 1.6156667 1.7632415e-38
0.63497972 0.39544922 1.6156667 1.1590047e-38
0.64464271 0.3947812 1.6145 1.7632415e-38
0.65490478 0.39602482 1.618 1.7632415e-38
0.66255122 0.39507291 1.6141112 1.7632415e-38
0.67613572 0.39636722 1.618 1.7632415e-38
0.68604088 0.39554662 1.6173 1.7632415e-38
0.694224 0.39577088 1.615375 1.7632415e-38
0.70729721 0.39910668 1.618 1.7632415e-38
0.71500194 0.39602479 1.618 1.1401309e-38
0.72578859 0.39602482 1.618 7.7408512e-39
0.73503435 0.39602476 1.618 8.5691601e-39
0.74114293 0.39472577 1.6152 8.1081876e-39
0.83925432 0.39738002 1.6110001 9.1847281e-39
0.84553933 0.39243501 1.6127501 6.8142132e-39
0.85459727 0.39124292 1.6110001 5.0689702e-39
0.86073434 0.39277717 1.6110001 5.3394306e-39
-0.70391142 0.40553221 1.6166 4.6962472e-39
-0.69496959 0.40527052 1.618 2.7630243e-39
-0.6857239 0.40527052 1.618 1.2878956e-38
-0.67404145 0.40534478 1.6121668 1.7632415e-38
-0.6647259 0.40545434 1.6156667 1.7632415e-38
-0.6579867 0.4083524 1.618 9.4007116e-39
-0.64257717 0.4083524 1.618 5.1608267e-39
-0.63949525 0.4083524 1.618 5.2522852e-39
-0.62320518 0.40571079 1.6180001 5.8944163e-39
-0.61427879 0.40477404 1.6145 5.8947764e-39
-0.60667586 0.40570772 1.6141819 5.0671765e-39
-0.58248007 0.40681145 1.618 1.7632415e-38
-0.57708675 0.40604097 1.618 1.7632415e-38
-0.56707048 0.4083524 1.618 1.7632415e-38
-0.53162861 0.4083524 1.618 1.7632415e-38
-0.52392387 0.4083524 1.618 1.7632415e-38
-0.51520759 0.40558937 1.6148182 1.7632415e-38
-0.50478005 0.40505147 1.6110001 1.7632415e-38
-0.49588117 0.40535831 1.6110001 1.7632415e-38
-0.48483431 0.40505144 1.6110001 1.7632415e-38
-0.47409436 0.40505144 1.6110001 1.7632415e-38
-0.46405989 0.40509528 1.6124002 1.6533639e-38
-0.45458093 0.40527052 1.618 9.8379532e-39
-0.4453353 0.40527049 1.618 9.2091527e-39
-0.43546757 0.40606761 1.6167274 1.2872849e-38
-0.4254784 0.40589681 1.6170001 1.6536896e-38
-0.41431552 0.40507567 1.6172223 1.7632415e-38
-0.40387702 0.405267 1.6135455 1.7632415e-38
-0.39479721 0.40533325 1.6130002 1.7632415e-38
-0.38509807 0.40555066 1.618 1.7632415e-38
-0.37481827 0.40595761 1.6120001 1.7632415e-38
-0.36976287 0.40965432 1.6110001 1.7632415e-38
-0.16488193 0.40681148 1.618 1.7632415e-38
-0.15607648 0.40615109 1.6180001 1.7632415e-38
-0.14433587 0.40629783 1.618 1.7632415e-38
-0.13406287 0.40527049 1.618 1.7632415e-38
-0.12481713 0.40527049 1.618 1.7632415e-38
-0.11595668 0.40565574 1.618 1.7632415e-38
-0.10436451 0.40555072 1.618 1.7632415e-38
-0.093998104 0.40527049 1.618 1.7632415e-38
-0.084367149 0.40488523 1.618 1.7632415e-38
-0.075506672 0.40527052 1.618 1.7632415e-38
-0.064720005 0.40527052 1.618 1.7632415e-38
-0.053933337 0.40527052 1.618 1.7632415e-38
-0.044687621 0.40527049 1.618 1.7632415e-38
-0.035441902 0.40527049 1.618 1.7632415e-38
-0.026196191 0.40527049 1.618 1.7632415e-38
-0.015854288 0.40632999 1.6110001 1.7632415e-38
-0.0048818188 0.40546989 1.6110001 1.7632415e-38
0.0042192857 0.40658578 1.6110001 1.7632415e-38
0.015123676 0.4048323 1.6110002 1.2882556e-38
0.026082858 0.40505144 1.6110001 8.5875508e-39
0.035288572 0.4050515 1.6110001 8.3120485e-39
0.042740826 0.40570906 1.6110002 8.1280201e-39
0.058302861 0.40505144 1.6110001 8.3109653e-39
0.06637115 0.40465689 1.6131001 8.0361734e-39
0.095539056 0.4083524 1.618 8.5864858e-39
0.10599113 0.40625799 1.6168334 1.5256951e-38
0.11521459 0.40570888 1.6173 1.7632415e-38
0.12296801 0.40588689 1.618 1.7632415e-38
0.14484954 0.4083524 1.618 1.7632415e-38
0.15563619 0.40527049 1.618 1.7632415e-38
0.16576247 0.40571079 1.6180001 1.7632415e-38
0.17436793 0.40661946 1.6158463 1.7632415e-38
0.18203756 0.40470698 1.6140001 1.7632415e-38
0.26788631 0.4047446 1.6110001 1.7632415e-38
0.27483714 0.40534151 1.6121668 1.7632415e-38
0.28390029 0.40510759 1.6129092 1.7632415e-38
0.29432192 0.40527049 1.618 1.7632415e-38
0.30356765 0.40527049 1.618 1.7632415e-38
0.31589526 0.4083524 1.618 1.7632415e-38
0.3351092 0.40674627 1.616091 1.7632415e-38
0.34504837 0.40512329 1.6174167 1.7632415e-38
0.35596001 0.40711966 1.618 1.7632415e-38
0.36315116 0.40732512 1.618 1.7632415e-38
0.37584138 0.40520313 1.6158463 1.7632415e-38
0.3852441 0.40519652 1.6115835 1.7632415e-38
0.39431149 0.40505147 1.6110001 1.7632415e-38
0.40520313 0.40661943 1.6158463 1.7632415e-38
0.41451627 0.40527052 1.618 1.7632415e-38
0.42527622 0.40564153 1.6147693 1.7632415e-38
0.43483397 0.40563375 1.6133335 1.7632415e-38
0.4441025 0.40650326 1.618 1.7632415e-38
0.45581374 0.40650326 1.618 1.7632415e-38
0.46536767 0.40527055 1.618 1.7632415e-38
0.47553799 0.40711966 1.618 1.7632415e-38
0.48478365 0.40711966 1.618 1.7632415e-38
0.49387527 0.40758193 1.618 1.7632415e-38
0.51621908 0.40403777 1.618 1.7632415e-38
0.52546483 0.40527049 1.618 1.7632415e-38
0.5343253 0.40565574 1.618 1.7632415e-38
0.54395622 0.40527052 1.618 1.7632415e-38
0.55474293 0.40527055 1.618 1.7632415e-38
0.56576777 0.40624741 1.6153078 1.7632415e-38
0.57387203 0.40226275 1.6130002 1.7632415e-38
0.58394921 0.40167603 1.6110001 1.7632415e-38
0.59545851 0.40558937 1.6148182 1.7632415e-38
0.60508657 0.40501267 1.6139168 1.7632415e-38
0.61387324 0.40245068 1.6120001 1.7632415e-38
0.62138575 0.40044859 1.6110001 1.7632415e-38
0.63765085 0.40205145 1.6133335 1.5443143e-38
0.64541483 0.40477243 1.6145 1.5345911e-38
0.65502149 0.40592629 1.6145002 1.7632415e-38
0.66261786 0.40473336 1.6117779 1.7632415e-38
0.67493725 0.40527055 1.618 1.7632415e-38
0.68572384 0.40527052 1.618 1.7632415e-38
0.69394225 0.4062978 1.618 1.7632415e-38
0.70421535 0.40527052 1.618 1.7632415e-38
0.715002 0.40527052 1.618 1.4792715e-38
0.72608835 0.40570888 1.6173 7.5532201e-39
0.73407906 0.40535554 1.6159 8.1081862e-39
0.83414006 0.40658578 1.6110001 9.759772e-39
-0.70285666 0.41474056 1.6148889 5.0682499e-39
-0.69463408 0.41431549 1.6172223 2.4878639e-39
-0.6857239 0.41451627 1.618 1.2411861e-38
-0.67462784 0.41592762 1.6145 1.7632415e-38
-0.66447687 0.41433692 1.6173 1.7632415e-38
-0.65534514 0.41539681 1.6180001 6.4487027e-39
-0.64521885 0.41539678 1.6180001 4.792054e-39
-0.63579702 0.41698176 1.618 5.8047584e-39
-0.62408572 0.41451624 1.618 7.557878e-39
-0.61507928 0.4156833 1.6140001 7.6454017e-39
-0.6056354 0.41562212 1.6133335 5.0661031e-39
-0.59480768 0.41605723 1.618 3.9579703e-39
-0.58463734 0.41513261 1.618 1.5077589e-38
-0.57513249 0.41529998 1.6136924 1.7632415e-38
-0.56499392 0.41653204 1.615375 1.7632415e-38
-0.55422926 0.41657084 1.618 1.7632415e-38
-0.54498351 0.41554356 1.618 1.7632415e-38
-0.53515083 0.41451627 1.6180001 1.7632415e-38
-0.52446187 0.41536531 1.6133335 1.7632415e-38
-0.51420909 0.41535574 1.6117001 1.7632415e-38
-0.50478005 0.41579142 1.6110001 1.7632415e-38
-0.49557433 0.41579142 1.6110001 1.7632415e-38
-0.48483431 0.41579148 1.6110001 1.7632415e-38
-0.47409433 0.41579142 1.6110001 1.7632415e-38
-0.46403742 0.41516474 1.6129092 1.7632415e-38
-0.45458093 0.41451624 1.618 1.7632415e-38
-0.44511971 0.41431698 1.6172223 1.6902754e-38
-0.43469974 0.41535574 1.6117001 1.57082e-38
-0.42465553 0.41514423 1.616091 7.8208625e-39
-0.41451624 0.41451624 1.618 1.4799976e-38
-0.4044942 0.4157649 1.6148889 1.7632415e-38
-0.39440429 0.41746193 1.6145 1.7632415e-38
-0.38531795 0.41500774 1.6165001 1.7632415e-38
-0.37436575 0.41579145 1.6110001 1.7632415e-38
-0.36976287 0.41272289 1.6110001 1.7632415e-38
-0.35135144 0.41886002 1.6110001 1.7632415e-38
-0.34828287 0.41886002 1.6110001 1.7632415e-38
-0.16488193 0.41143435 1.618 1.7632415e-38
-0.15519594 0.41363567 1.6180001 1.7632415e-38
-0.14484954 0.41451627 1.618 1.7632415e-38
-0.13406287 0.41451624 1.618 1.7632415e-38
-0.12481715 0.41451624 1.618 1.7632415e-38
-0.11557143 0.41451624 1.618 1.7632415e-38
-0.10478478 0.41451627 1.618 1.7632415e-38
-0.093998112 0.41451624 1.618 1.7632415e-38
-0.083519615 0.41574898 1.618 1.7632415e-38
-0.075506672 0.41451624 1.618 1.7632415e-38
-0.064720005 0.41451627 1.618 1.7632415e-38
-0.053933341 0.41451624 1.618 1.7632415e-38
-0.044306096 0.41440997 1.6152 1.7632415e-38
-0.035637233 0.41465023 1.6141819 1.7632415e-38
-0.025856625 0.41465029 1.6141819 1.7632415e-38
-0.015649717 0.41395029 1.6110001 1.7632415e-38
-0.0015342858 0.41272289 1.6110001 1.7632415e-38
0.0030685714 0.41579145 1.6110001 1.7632415e-38
0.012274286 0.41579145 1.6110001 1.3795156e-38
0.026082858 0.41272292 1.6110001 8.3120485e-39
0.038357146 0.41272289 1.6110001 8.1280244e-39
0.043727145 0.41502434 1.6110001 7.9443435e-39
0.05764531 0.41535309 1.6110002 8.3120471e-39
0.065974295 0.41272289 1.6110001 8.1287264e-39
0.075317234 0.41500112 1.6139168 8.4035168e-39
0.084322982 0.41467562 1.617125 7.7617431e-39
0.093998104 0.41451627 1.618 8.3120387e-39
0.10439135 0.41465393 1.6141819 1.0686811e-38
0.11576917 0.41422895 1.615375 1.7632415e-38
0.12436607 0.41467726 1.617125 1.7632415e-38
0.13406287 0.4160572 1.618 1.7632415e-38
0.14454104 0.41513509 1.6174167 1.7632415e-38
0.15532894 0.41481569 1.6148182 1.7632415e-38
0.16443375 0.41476995 1.6166 1.7632415e-38
0.1755223 0.41517779 1.6110001 1.7632415e-38
0.18380745 0.41640517 1.6110001 1.7632415e-38
0.26850003 0.41579145 1.6110001 1.7632415e-38
0.27463716 0.41579145 1.6110001 1.7632415e-38
0.28425843 0.41536641 1.6133333 1.7632415e-38
0.29520625 0.41474813 1.6167274 1.7632415e-38
0.30525598 0.41487819 1.6174167 1.7632415e-38
0.31567603 0.41497752 1.6154547 1.7632415e-38
0.32551533 0.4158484 1.6155001 1.7632415e-38
0.334907 0.41540885 1.6131001 1.7632415e-38
0.34629655 0.41519132 1.6173637 1.7632415e-38
0.35557503 0.41560215 1.61625 1.7632415e-38
0.36481076 0.41560218 1.61625 1.7632415e-38
0.37490317 0.41464376 1.6173 1.7632415e-38
0.38492799 0.4148649 1.6118751 1.7632415e-38
0.39431149 0.41579142 1.6110001 1.7632415e-38
0.40505147 0.41579145 1.6110001 1.7632415e-38
0.4145523 0.41410819 1.6130002 1.7632415e-38
0.42407066 0.41485381 1.6133335 1.7632415e-38
0.43420285 0.41579142 1.6110001 1.7632415e-38
0.4453353 0.41451624 1.618 1.7632415e-38
0.45458099 0.41451624 1.618 1.7632415e-38
0.46536767 0.41451621 1.618 1.7632415e-38
0.47615433 0.41451624 1.618 1.7632415e-38
0.48540005 0.41451624 1.618 1.7632415e-38
0.49464574 0.41451627 1.618 1.7632415e-38
0.5032751 0.41636536 1.618 1.7632415e-38
0.51587665 0.4152011 1.618 1.7632415e-38
0.52546483 0.41451627 1.618 1.7632415e-38
0.53471053 0.41451624 1.618 1.7632415e-38
0.54395622 0.41451624 1.618 1.7632415e-38
0.55472612 0.41471142 1.6169232 1.7632415e-38
0.56246561 0.41353101 1.6121668 1.7632415e-38
0.59605491 0.41488516 1.612077 1.7632415e-38
0.60450864 0.41886002 1.6110001 1.7632415e-38
0.64798009 0.41374573 1.6110001 8.1064107e-39
0.6551125 0.41496634 1.6117779 1.2699612e-38
0.66281146 0.41579145 1.6110001 1.7632415e-38
0.67493719 0.41451621 1.618 1.7632415e-38
0.68572378 0.41451621 1.618 1.7632415e-38
0.69496959 0.41451624 1.618 1.7632415e-38
0.70421749 0.41495061 1.6173 1.7632415e-38
0.71565598 0.41491762 1.6170001 1.7632415e-38
0.72575295 0.41463909 1.6145 8.0113116e-39
0.73185432 0.41272289 1.6110001 7.4635412e-39
0.83673722 0.41143432 1.618 1.1333209e-38
-0.70268416 0.42345634 1.615375 5.0671933e-39
-0.69496959 0.42376196 1.618 2.5807924e-39
-0.68576205 0.42460704 1.615375 9.8372455e-39
-0.67490339 0.42474577 1.6147335 1.7176122e-38
-0.66420537 0.42521271 1.6160001 1.7632415e-38
-0.65466762 0.42514795 1.6174167 1.2680864e-38
-0.64544195 0.42396703 1.6148889 3.3172658e-39
-0.6358006 0.42437786 1.6145 4.9757068e-39
-0.62481332 0.42422456 1.6139168 6.0813439e-39
-0.61524862 0.42499718 1.6110001 6.0798991e-39
-0.60565072 0.42417657 1.6117779 4.79167e-39
-0.59548408 0.42468506 1.6156667 4.2363439e-39
-0.58494818 0.42499131 1.6148889 1.6171336e-38
-0.57444131 0.42494521 1.6127501 1.7632415e-38
-0.56402546 0.42494044 1.6129092 1.7632415e-38
-0.55474281 0.42530283 1.618 1.7632415e-38
-0.54423642 0.42488265 1.618 1.7632415e-38
-0.53495848 0.42437878 1.6125556 1.7632415e-38
-0.52563107 0.42404675 1.6116365 1.7632415e-38
-0.51354736 0.42412049 1.6110002 1.7632415e-38
-0.50521839 0.4241204 1.6110002 1.7632415e-38
-0.49557433 0.42499715 1.6110001 1.7632415e-38
-0.48867005 0.42423004 1.6110001 1.7632415e-38
-0.47409433 0.42192858 1.6110001 1.7632415e-38
-0.46514624 0.42572308 1.6148182 1.7632415e-38
-0.45414072 0.42596331 1.6180001 1.7632415e-38
-0.44485697 0.42484123 1.61625 1.7632415e-38
-0.43420285 0.42499718 1.6110001 1.625813e-38
-0.42437762 0.42437857 1.6145002 4.6987569e-39
-0.41513509 0.42514789 1.6174167 4.1477846e-39
-0.40467528 0.42505032 1.6122729 5.069441e-39
-0.39490315 0.42421225 1.6122729 1.1768696e-38
-0.38472039 0.42437893 1.6129092 1.6171e-38
-0.37590003 0.42499718 1.6110001 1.7632415e-38
-0.36474159 0.42527616 1.6110001 1.7632415e-38
-0.35458964 0.42520088 1.6117779 1.7632415e-38
-0.34559786 0.42538077 1.6110001 1.7632415e-38
-0.31367764 0.42899573 1.6145 1.7632415e-38
-0.15387511 0.42596328 1.6180001 1.7632415e-38
-0.14484954 0.42530283 1.618 1.7632415e-38
-0.13406289 0.42530283 1.618 1.7632415e-38
-0.12481715 0.42530286 1.618 1.7632415e-38
-0.11557145 0.42530295 1.618 1.7632415e-38
-0.10478478 0.42530283 1.618 1.7632415e-38
-0.093998097 0.42530286 1.618 1.7632415e-38
-0.084752381 0.42530292 1.618 1.7632415e-38
-0.07550668 0.42530286 1.618 1.7632415e-38
-0.064720005 0.42530283 1.618 1.7632415e-38
-0.053933334 0.42530292 1.618 1.7632415e-38
-0.044898707 0.42504919 1.6154547 1.7632415e-38
-0.035040386 0.42511812 1.6138 1.7632415e-38
-0.026778838 0.42417657 1.6117779 1.7632415e-38
0.010740001 0.42192858 1.6110001 1.7632415e-38
0.038357146 0.42192858 1.6110001 8.1276488e-39
0.04449429 0.42192858 1.6110001 8.1280103e-39
0.075793721 0.42315602 1.6110001 8.2198388e-39
0.084664047 0.42484117 1.61625 8.0365392e-39
0.093998097 0.42530292 1.618 8.2205647e-39
0.10444503 0.425488 1.6175334 1.0321986e-38
0.11548701 0.42499289 1.6168334 1.7632415e-38
0.12459102 0.42453012 1.6150835 1.7632415e-38
0.13494229 0.42450047 1.6138002 1.7632415e-38
0.14537075 0.42354077 1.6129092 1.7632415e-38
0.15503022 0.42456546 1.6117001 1.7632415e-38
0.16477422 0.42471346 1.6141819 1.7632415e-38
0.17437011 0.42452106 1.6136924 1.7632415e-38
0.18360287 0.42295146 1.6110001 1.7632415e-38
0.26850003 0.42499718 1.6110001 1.7632415e-38
0.27490085 0.42541051 1.6125556 1.7632415e-38
0.28563425 0.42550755 1.6139168 1.7632415e-38
0.29532772 0.42390591 1.6131539 1.7632415e-38
0.30632666 0.42488012 1.6148182 1.7632415e-38
0.31435707 0.42456546 1.6117001 1.7632415e-38
0.32526863 0.42499721 1.6110001 1.7632415e-38
0.33600858 0.42499718 1.6110001 1.7632415e-38
0.34561476 0.42471465 1.6141819 1.7632415e-38
0.35442004 0.42499718 1.6110001 1.7632415e-38
0.36515999 0.42499715 1.6110001 1.7632415e-38
0.37501377 0.42419225 1.6138 1.7632415e-38
0.38463864 0.42464146 1.6155001 1.7632415e-38
0.39431149 0.42499715 1.6110001 1.7632415e-38
0.40505153 0.42499721 1.6110001 1.7632415e-38
0.41585198 0.42506215 1.6125556 1.7632415e-38
0.42448026 0.42448136 1.6139168 1.7632415e-38
0.43420282 0.42499721 1.6110001 1.7632415e-38
0.44533533 0.42530286 1.618 1.7632415e-38
0.45458099 0.42530292 1.618 1.7632415e-38
0.46526495 0.42561105 1.6180001 1.7632415e-38
0.47615433 0.42530286 1.618 1.7632415e-38
0.48506138 0.42494619 1.6153078 1.7632415e-38
0.4948779 0.42483792 1.61625 1.7632415e-38
0.50429642 0.42499286 1.6168334 1.7632415e-38
0.51453966 0.42462265 1.6166002 1.7632415e-38
0.52470589 0.42468399 1.6156667 1.7632415e-38
0.53471053 0.42530292 1.618 1.7632415e-38
0.54395628 0.42530286 1.618 1.7632415e-38
0.55293554 0.42485118 1.6158463 1.7632415e-38
0.59837145 0.42499718 1.6110001 1.7632415e-38
0.60604286 0.42499718 1.6110001 1.7632415e-38
0.61448145 0.42729861 1.6110001 1.7632415e-38
0.65820861 0.42192858 1.6110001 1.1714648e-38
0.66373205 0.42438346 1.6110001 1.7632415e-38
0.67505115 0.42487067 1.6175334 1.7632415e-38
0.68572378 0.42530283 1.618 1.7632415e-38
0.69496965 0.42530283 1.618 1.7632415e-38
0.70327878 0.42513624 1.6142309 1.7632415e-38
0.71454841 0.42314881 1.6140001 1.7632415e-38
0.7241829 0.42346287 1.6110001 1.3879763e-38
-0.68275726 0.43420288 1.6110001 5.3470439e-39
-0.67550421 0.43392396 1.6110001 1.5531737e-38
-0.66401803 0.43408331 1.6117001 1.7632415e-38
-0.65475643 0.43458641 1.6110001 1.7632415e-38
-0.64593434 0.43420285 1.6110001 9.7435701e-39
-0.6351943 0.43420285 1.6110001 4.8788266e-39
-0.62475431 0.43441102 1.6117779 5.5249429e-39
-0.61524862 0.43420285 1.6110001 5.2490735e-39
-0.60604286 0.43420285 1.6110001 3.8707983e-39
-0.59530294 0.43420285 1.6110001 8.4575299e-39
-0.58407807 0.43499011 1.6139168 1.7632415e-38
-0.574848 0.43624064 1.617125 1.7632415e-38
-0.56491995 0.43484339 1.6145 1.7632415e-38
-0.55548608 0.43546069 1.6156667 1.7632415e-38
-0.54493296 0.43441099 1.6117779 1.7632415e-38
-0.53776723 0.43343574 1.6110001 1.7632415e-38
-0.49250576 0.43113431 1.6110001 1.7632415e-38
-0.48432288 0.43266863 1.6110001 1.7632415e-38
-0.46401986 0.43483064 1.6133335 1.7632415e-38
-0.45458099 0.4376305 1.618 1.7632415e-38
-0.4446975 0.43546069 1.6156667 1.7632415e-38
-0.43420285 0.43420282 1.6110001 1.7632415e-38
-0.4247171 0.4347803 1.6141819 1.7632415e-38
-0.41560385 0.43561456 1.61625 1.2039839e-38
-0.40463302 0.43448186 1.6110001 8.2835965e-39
-0.39431149 0.43420288 1.6110001 4.2396201e-39
-0.38510576 0.43420288 1.6110001 4.8828637e-39
-0.3759 0.43420282 1.6110001 9.3875044e-39
-0.36515999 0.43420279 1.6110001 1.5256605e-38
-0.35595432 0.43343574 1.6110001 1.7632415e-38
-0.34316859 0.43215716 1.6110001 1.7632415e-38
-0.33703145 0.43420288 1.6110001 1.7632415e-38
-0.31350574 0.43215716 1.6110001 1.7632415e-38
-0.15625258 0.43793869 1.618 1.1961698e-38
-0.14484954 0.43608958 1.618 1.7632415e-38
-0.13406287 0.43608958 1.618 1.7632415e-38
-0.12481715 0.43608958 1.618 1.7632415e-38
-0.11551736 0.43587843 1.6172223 1.7632415e-38
-0.10520504 0.43608961 1.618 1.7632415e-38
-0.094289146 0.43458024 1.6124001 1.7632415e-38
-0.084507942 0.43482733 1.6133333 1.7632415e-38
-0.075288892 0.43482736 1.6133333 1.7632415e-38
-0.06547258 0.43464538 1.6138 1.7632415e-38
-0.054838274 0.43465212 1.6116365 1.7632415e-38
-0.046028577 0.4326686 1.6110001 1.7632415e-38
-0.032987144 0.43343574 1.6110001 1.7632415e-38
-0.02915143 0.43113431 1.6110001 1.7632415e-38
0.08463461 0.43546069 1.6156667 7.8524996e-39
0.093612865 0.43647483 1.618 7.9439848e-39
0.1046281 0.43545955 1.6156667 9.4090312e-39
0.1151855 0.43462363 1.6125556 1.7632415e-38
0.1246327 0.43546069 1.6156667 1.7632415e-38
0.1345987 0.4339239 1.6110001 1.7632415e-38
0.14473431 0.43215716 1.6110001 1.7632415e-38
0.15496288 0.43236175 1.6110001 1.7632415e-38
0.16314574 0.43318003 1.6110001 1.7632415e-38
0.1733743 0.43113431 1.6110001 1.7632415e-38
0.26850003 0.43420288 1.6110001 1.7632415e-38
0.27529567 0.43524957 1.6148889 1.7632415e-38
0.28495872 0.4339239 1.6110001 1.7632415e-38
0.29714003 0.43318003 1.6110001 1.7632415e-38
0.30532292 0.43420285 1.6110001 1.7632415e-38
0.31452861 0.43420285 1.6110001 1.7632415e-38
0.32526863 0.43420285 1.6110001 1.7632415e-38
0.33600861 0.43420282 1.6110001 1.7632415e-38
0.34521428 0.43420285 1.6110001 1.7632415e-38
0.35442004 0.43420285 1.6110001 1.7632415e-38
0.36515999 0.43420285 1.6110001 1.7632415e-38
0.37590006 0.43420282 1.6110001 1.7632415e-38
0.38510573 0.43420285 1.6110001 1.7632415e-38
0.3939279 0.43381926 1.6110001 1.7632415e-38
0.40519094 0.4339239 1.6110001 1.7632415e-38
0.41579142 0.43420285 1.6110001 1.7632415e-38
0.42499718 0.43420285 1.6110001 1.7632415e-38
0.43420288 0.43420285 1.6110001 1.7632415e-38
0.4453353 0.43608961 1.618 1.7632415e-38
0.45496622 0.43647483 1.618 1.7632415e-38
0.46536767 0.43608961 1.618 1.7632415e-38
0.47592539 0.43587846 1.6172223 1.7632415e-38
0.48518211 0.43451616 1.6121668 1.7632415e-38
0.49557433 0.43420282 1.6110001 1.7632415e-38
0.50549144 0.43476433 1.6145 1.7632415e-38
0.51359272 0.43469974 1.6117001 1.7632415e-38
0.52471143 0.43546069 1.6156667 1.7632415e-38
0.53471047 0.43608955 1.618 1.7632415e-38
0.54395622 0.43608958 1.618 1.7632415e-38
0.5509519 0.43457308 1.6140001 1.7632415e-38
0.59837151 0.43420288 1.6110001 1.7632415e-38
0.60604286 0.43420285 1.6110001 1.7632415e-38
0.61486506 0.43420285 1.6110001 1.7632415e-38
0.62138575 0.43727145 1.6110001 1.7632415e-38
0.66741431 0.4326686 1.6110001 1.7632415e-38
0.67550558 0.43545768 1.6156667 1.7632415e-38
0.68572384 0.43608958 1.618 1.7632415e-38
0.69553882 0.4360255 1.6167274 1.7632415e-38
0.70355135 0.43372908 1.6117779 1.7632415e-38
-0.6827572 0.44187433 1.6110001 2.5783205e-39
-0.67442828 0.44165519 1.6110002 1.6443604e-38
-0.66522253 0.44297028 1.6110002 1.7632415e-38
-0.65514004 0.44302505 1.6110001 1.7632415e-38
-0.64565539 0.44452444 1.6110001 1.6992082e-38
-0.63519424 0.44494289 1.6110001 1.1118943e-38
-0.62445438 0.44494292 1.6110001 1.2399259e-38
-0.61524868 0.44494289 1.6110001 1.7081404e-38
-0.60604286 0.44494289 1.6110001 1.4510743e-38
-0.59488446 0.44368753 1.6110001 1.7632415e-38
-0.58334613 0.44375768 1.6122729 1.7632415e-38
-0.57485789 0.44574231 1.6139168 1.7632415e-38
-0.56448483 0.44579214 1.6125001 1.7632415e-38
-0.55427945 0.44526178 1.6121668 1.7632415e-38
-0.54528522 0.44432917 1.6110001 1.7632415e-38
-0.48198494 0.44428533 1.6110002 1.7632415e-38
-0.47437331 0.44452444 1.6110001 1.7632415e-38
-0.46513629 0.44604805 1.6161335 1.7632415e-38
-0.45458093 0.4453353 1.618 1.7632415e-38
-0.44477198 0.4461852 1.6142309 1.7081418e-38
-0.43499276 0.44504985 1.6129092 1.552562e-38
-0.42488265 0.44561544 1.618 1.7632415e-38
-0.4160572 0.44533527 1.618 1.7632415e-38
-0.40535834 0.44484058 1.6110002 1.7632415e-38
-0.39431152 0.44494289 1.6110001 1.3782886e-38
-0.38510573 0.44340861 1.6110001 7.2712326e-39
-0.3759 0.44340861 1.6110001 5.1604694e-39
-0.36757106 0.44297028 1.6110002 4.7942736e-39
-0.33294001 0.44034004 1.6110001 1.7632415e-38
-0.16180001 0.44687623 1.618 4.6198821e-39
-0.15563621 0.4453353 1.618 7.2848995e-39
-0.14484952 0.44533533 1.618 1.0585627e-38
-0.13364135 0.44556236 1.6166 1.5802922e-38
-0.12454714 0.44590291 1.6145 1.7632415e-38
-0.11524032 0.44558287 1.6133335 1.7632415e-38
-0.10524805 0.4456017 1.6150001 1.7632415e-38
-0.094585322 0.44592893 1.6130002 1.7632415e-38
-0.08444795 0.44526172 1.6121668 1.7632415e-38
-0.076407433 0.4421812 1.6110001 1.7632415e-38
-0.065974295 0.44034004 1.6110001 1.7632415e-38
-0.056768574 0.44034004 1.6110001 1.7632415e-38
-0.023014287 0.44647717 1.6110001 1.7632415e-38
0.08619348 0.44455865 1.6120001 8.3116729e-39
0.09527906 0.4456645 1.613625 8.0361748e-39
0.10586572 0.44494283 1.6110001 7.5755652e-39
0.11476457 0.44402233 1.6110001 1.7632415e-38
0.12402296 0.44421369 1.6117001 1.7632415e-38
0.13194858 0.44187433 1.6110001 1.7632415e-38
0.16110002 0.44034004 1.6110001 1.7632415e-38
0.26908335 0.44283098 1.6145 1.7632415e-38
0.27483386 0.44526291 1.6121668 1.7632415e-38
0.28435433 0.44596577 1.6110001 1.7632415e-38
0.29714 0.4485229 1.6110001 1.7632415e-38
0.30560189 0.44508237 1.6110001 1.7632415e-38
0.31452861 0.44494289 1.6110001 1.7632415e-38
0.32548779 0.44428533 1.6110002 1.7632415e-38
0.33600861 0.44494295 1.6110001 1.7632415e-38
0.34521431 0.44494292 1.6110001 1.7632415e-38
0.35411319 0.44402227 1.6110001 1.7632415e-38
0.3655141 0.44388068 1.6110002 1.7632415e-38
0.37538862 0.44289717 1.6110001 1.7632415e-38
0.38571945 0.44279489 1.6110001 1.7632415e-38
0.39124289 0.44034004 1.6110001 1.7632415e-38
0.40658575 0.44494289 1.6110001 1.7632415e-38
0.41425717 0.44417575 1.6110001 1.7632415e-38
0.42499715 0.44034004 1.6110001 1.7632415e-38
0.43727145 0.44340861 1.6110001 1.7632415e-38
0.4453353 0.4453353 1.618 1.7632415e-38
0.45499802 0.44575635 1.6173 1.7632415e-38
0.46419454 0.44514894 1.6128668 1.7632415e-38
0.47409436 0.44494283 1.6110001 1.7632415e-38
0.48483431 0.44494286 1.6110001 1.7632415e-38
0.49557433 0.44494292 1.6110001 1.7632415e-38
0.50549561 0.44623592 1.6141819 1.7632415e-38
0.51368344 0.44473597 1.6115385 1.7632415e-38
0.52357149 0.44526172 1.6121668 1.7632415e-38
0.53471059 0.4453353 1.618 1.7632415e-38
0.54508841 0.44552398 1.6155001 1.7632415e-38
0.59745091 0.44340858 1.6110001 1.7632415e-38
0.60604292 0.44494289 1.6110001 1.7632415e-38
0.61524862 0.44494289 1.6110001 1.7632415e-38
0.62445432 0.44494289 1.6110001 1.5988034e-38
0.63672864 0.4485229 1.6110001 1.3249906e-38
0.66741431 0.44034004 1.6110001 1.7632415e-38
0.67558861 0.44476363 1.6114668 1.7632415e-38
0.68630546 0.44404638 1.6133335 1.7632415e-38
0.69499886 0.44283265 1.6145 1.7632415e-38
0.70270288 0.44034004 1.6110001 1.7632415e-38
0.71855724 0.4485229 1.6110001 1.7632415e-38
0.72878575 0.44494289 1.6110001 1.7632415e-38
0.73185432 0.44494289 1.6110001 1.7632415e-38
-0.64388865 0.45363718 1.6110001 1.7632415e-38
-0.63585186 0.45392936 1.6110002 1.7632415e-38
-0.62752289 0.45261431 1.6110001 1.7632415e-38
-0.60481548 0.45629659 1.6110001 1.7632415e-38
-0.59990573 0.45875147 1.6110001 1.7632415e-38
-0.58763146 0.45875147 1.6110001 1.7632415e-38
-0.57474345 0.45384175 1.6110001 1.7632415e-38
-0.56819719 0.45363718 1.6110001 1.7632415e-38
-0.55541146 0.45261431 1.6110001 1.7632415e-38
-0.4771629 0.45261431 1.6110001 1.7632415e-38
-0.4611032 0.45289811 1.6156667 1.7632415e-38
-0.45505705 0.45461106 1.6150001 1.7632415e-38
-0.44494289 0.45568287 1.6110001 1.6353938e-38
-0.43375468 0.45526963 1.613625 8.9257639e-39
-0.42556241 0.45468095 1.6158463 1.7085368e-38
-0.41645759 0.45473844 1.6170001 1.7632415e-38
-0.40505153 0.45568284 1.6110001 1.7632415e-38
-0.39512503 0.4557943 1.6127501 1.7632415e-38
-0.16349375 0.45404917 1.6130002 1.7632415e-38
-0.15527137 0.45462164 1.6141819 1.5985511e-38
-0.14519233 0.4546898 1.6145002 1.0948252e-38
-0.13497745 0.45603377 1.6147693 7.3742659e-39
-0.12446013 0.4563399 1.6133333 1.7632415e-38
-0.11550979 0.45480615 1.6110002 1.7632415e-38
-0.092824288 0.45338145 1.6110001 1.7632415e-38
-0.084385723 0.45384175 1.6110001 1.7632415e-38
0.11200286 0.45261431 1.6110001 1.7632415e-38
0.12120858 0.45261431 1.6110001 1.7632415e-38
0.2758646 0.45445547 1.6110001 1.7632415e-38
0.2852377 0.45568293 1.6110001 1.7632415e-38
0.3151423 0.45384175 1.6110001 1.7632415e-38
0.32557544 0.45445547 1.6110001 1.7632415e-38
0.33600864 0.45480615 1.6110002 1.7632415e-38
0.34214574 0.45414859 1.6110001 1.7632415e-38
0.36976287 0.45261431 1.6110001 1.7632415e-38
0.37436575 0.45261431 1.6110001 1.7632415e-38
0.38510573 0.45261431 1.6110001 1.7632415e-38
0.44502142 0.45484611 1.6124002 1.7632415e-38
0.45540738 0.45463693 1.6127501 1.7632415e-38
0.46488863 0.4556829 1.6110001 1.7632415e-38
0.47409433 0.45568287 1.6110001 1.7632415e-38
0.48483431 0.45568296 1.6110001 1.7632415e-38
0.49557433 0.45414862 1.6110001 1.7632415e-38
0.50521839 0.45480615 1.6110002 1.7632415e-38
0.51398575 0.4556829 1.6110001 1.7632415e-38
0.52430725 0.45596185 1.6110001 1.7632415e-38
0.53470582 0.45440403 1.6152 1.7632415e-38
0.54304606 0.453015 1.6140001 1.7632415e-38
0.60604286 0.45568287 1.6110001 1.4616988e-38
0.61473715 0.45466003 1.6110001 1.4253243e-38
0.62445432 0.45261431 1.6110001 1.1425076e-38
0.63979721 0.45261431 1.6110001 1.133577e-38
0.71958005 0.45261431 1.6110001 1.7632415e-38
-0.60481548 0.46427488 1.6110001 1.7632415e-38
-0.59837145 0.46182004 1.6110001 1.7632415e-38
-0.58763146 0.46182004 1.6110001 1.7632415e-38
-0.44187433 0.46182004 1.6110001 4.0753865e-39
-0.4326686 0.46335432 1.6110001 1.7632415e-38
-0.42450044 0.46200368 1.6138 1.4335735e-38
-0.41483837 0.46255124 1.61625 7.2872172e-39
-0.40351716 0.46565574 1.6110001 1.1498591e-38
-0.39474985 0.46576536 1.6110002 1.6626196e-38
-0.16723715 0.46182004 1.6110001 1.7632415e-38
-0.15803143 0.46335432 1.6110001 1.7632415e-38
-0.12734573 0.46795717 1.6110001 1.7632415e-38
0.27463716 0.46591148 1.6110001 1.7632415e-38
0.28523767 0.46460962 1.6110001 1.7632415e-38
0.2968843 0.46258718 1.6110001 1.7632415e-38
0.44494292 0.46488863 1.6110001 1.7632415e-38
0.4556829 0.46488863 1.6110001 1.7632415e-38
0.4648886 0.46182004 1.6110001 1.7632415e-38
0.47486144 0.46258718 1.6110001 1.7632415e-38
0.48268634 0.46304747 1.6110001 1.7632415e-38
0.51398575 0.46182004 1.6110001 1.7632415e-38
0.52626002 0.46182007 1.6110001 1.7632415e-38
0.60788411 0.46427488 1.6110001 1.2888668e-38
0.61218005 0.46335432 1.6110001 1.7632415e-38
-0.40351719 0.47102576 1.6110001 1.2968217e-38
-0.39488256 0.47170794 1.6133335 1.5433746e-38
-0.38817433 0.47102574 1.6110001 1.7632415e-38
0.27310288 0.47256002 1.6110001 1.7632415e-38
0.28230858 0.47102574 1.6110001 1.7632415e-38
0.44494292 0.47409439 1.6110001 1.7632415e-38
0.45568287 0.47409433 1.6110001 1.7632415e-38
0.46335432 0.4771629 1.6110001 1.7632415e-38
-0.17030573 0.48943716 1.6110001 1.7632415e-38
0.45721716 0.48176575 1.6110001 1.7632415e-38
0.46258718 0.4840672 1.6110001 1.7632415e-38
-0.17720954 0.49464574 1.618 1.7632415e-38
-0.34214577 0.50478005 1.6110001 1.7632415e-38
-0.34214574 0.51245147 1.6110001 4.597621e-39
-0.33907717 0.51091719 1.6110001 7.0994881e-39
0.006194286 -0.66124004 1.626 2.3931277e-39
0.012388572 -0.66124004 1.626 1.9346593e-39
0.034068577 -0.66433716 1.626 2.1187142e-39
0.36701146 -0.66124004 1.626 1.3796876e-39
0.37527055 -0.66227245 1.6260002 1.1067063e-39
0.38765907 -0.66227245 1.6260002 2.396041e-39
0.3917886 -0.66433716 1.626 2.5807784e-39
-0.0034068574 -0.65380692 1.626 2.9452253e-39
0.0046457145 -0.6565944 1.6260002 2.4849646e-39
0.010840001 -0.65659434 1.626 1.9357439e-39
0.37475431 -0.65814292 1.626 1.4754944e-39
0.38559434 -0.65711057 1.6260002 2.4871506e-39
0.39400089 -0.65460336 1.6260002 2.7633606e-39
0.40108001 -0.65194863 1.626 2.6704811e-39
0.46921718 -0.65194863 1.626 3.5016753e-39
0.47231433 -0.65194863 1.626 3.5013278e-39
-0.010840001 -0.64420575 1.626 2.7626473e-39
-0.005530613 -0.64619678 1.6260002 3.0381552e-39
0.39577067 -0.64575434 1.6260002 2.5814888e-39
0.40373477 -0.64486945 1.6260002 2.12341e-39
0.41192001 -0.64265716 1.626 2.5818658e-39
0.4465048 -0.64575434 1.6260002 2.396411e-39
0.45528004 -0.64885145 1.626 3.0385406e-39
0.46612003 -0.64885145 1.626 3.2232877e-39
-0.12698287 -0.63336575 1.626 1.7632415e-38
-0.022609144 -0.63150752 1.626 3.1310627e-39
-0.013162857 -0.63336575 1.6260002 2.855545e-39
-0.006194286 -0.63956004 1.626 2.6718754e-39
0.20905715 -0.63646293 1.626 3.5016459e-39
0.41656575 -0.6395601 1.6260002 2.948849e-39
0.42585716 -0.63646293 1.6260002 2.3070698e-39
0.43360001 -0.63646293 1.626 2.9520734e-39
0.44444007 -0.6395601 1.6260002 2.121245e-39
0.78512579 -0.63336575 1.626 1.4616258e-38
-0.12388572 -0.62562287 1.626 1.3060097e-38
-0.11614287 -0.62407434 1.6260002 4.236718e-39
-0.075880006 -0.62097716 1.6260002 2.5800623e-39
-0.068137147 -0.62097716 1.626 2.4878695e-39
-0.041811433 -0.62097716 1.626 2.6736873e-39
-0.03561715 -0.62355816 1.6260002 2.4903638e-39
-0.028390478 -0.6261391 1.6260002 3.0395859e-39
0.78409338 -0.62407434 1.6260002 8.5580254e-39
-0.094462864 -0.61788005 1.626 3.1317661e-39
-0.083622858 -0.61478287 1.626 2.9488168e-39
-0.074847624 -0.61581528 1.6260002 2.5793351e-39
-0.066201434 -0.61362141 1.6260002 2.580763e-39
-0.053580578 -0.61292458 1.626 2.9466798e-39
