# .PCD v0.7 - Point Cloud Data file format
VERSION 0.7
FIELDS x y z rgb
SIZE 4 4 4 4
TYPE F F F F
COUNT 1 1 1 1
WIDTH 950
HEIGHT 1
VIEWPOINT 0 0 0 1 0 0 0
POINTS 950
DATA ascii
-0.032383919 -0.0374946 0.016423611 1.909059e-40
-0.027396236 -0.037484203 0.016461423 9.9068999e-41
-0.022383157 -0.037519719 0.016497882 9.834733e-41
-0.017526157 -0.037549816 0.016591908 6.511834e-42
-0.01258022 -0.037507124 0.016755708 6.1517003e-42
-0.0076039759 -0.037503596 0.016817922 5.7915666e-42
-0.002536471 -0.037452642 0.016897293 5.7915666e-42
0.0025620486 -0.03745953 0.01703676 5.0698978e-42
0.0076142428 -0.037469808 0.017148845 4.7097641e-42
0.012668515 -0.037474133 0.017499838 3.6279617e-42
0.017565569 -0.037482295 0.017517552 3.2650254e-42
0.022409463 -0.037437391 0.017609401 1.9090169e-40
0.027259644 -0.037563208 0.017710321 5.0642927e-42
0.032132134 -0.037595715 0.018446829 2.5419554e-42
0.037126467 -0.037835989 0.019197341 9.6536853e-41
0.041708414 -0.037606847 0.019615844 2.1790191e-42
0.053634033 -0.038080737 0.019125573 6.4616731e-39
0.055802137 -0.038634431 0.019291235 1.7988631e-38
0.068824671 -0.0393769 0.019950815 6.4932808e-40
0.072934896 -0.037435316 0.019455403 9.3290044e-41
0.077749707 -0.037442032 0.019249925 1.460153e-42
0.082780816 -0.037513897 0.018736806 3.6251591e-42
0.087718397 -0.037541188 0.018021269 9.7988598e-41
0.092627846 -0.03747303 0.017539665 4.6605505e-40
0.097487047 -0.037358627 0.017426481 2.5861986e-39
0.10194895 -0.036848485 0.017198915 5.2620383e-39
0.10568878 -0.035413966 0.016255854 1.1128636e-39
-0.051399589 -0.033742081 0.015908375 1.4481598e-38
-0.047237035 -0.032886274 0.01645378 1.2083793e-38
-0.04249135 -0.032527775 0.016542591 6.4584165e-39
-0.037545193 -0.032517537 0.016589077 2.5865545e-39
-0.032472234 -0.032325651 0.016452389 7.4444261e-40
-0.027387472 -0.032506522 0.016456282 2.8310293e-40
-0.022375716 -0.032418173 0.016429167 9.9068999e-41
-0.017612658 -0.032449074 0.016493326 9.8348731e-41
-0.012564018 -0.032467708 0.016521508 5.7929679e-42
-0.007549868 -0.032454874 0.016641643 5.0712991e-42
-0.0025092452 -0.032434512 0.016716713 4.7097641e-42
0.0025950137 -0.032417759 0.016909124 4.3496304e-42
0.0076679476 -0.03242708 0.017190998 3.9880954e-42
0.012667624 -0.032367468 0.017563783 2.9048917e-42
0.017516753 -0.032376491 0.017553838 9.7265528e-41
0.022386443 -0.032445207 0.01762002 9.7981591e-41
0.027203368 -0.032517757 0.018135803 2.5405541e-42
0.03208442 -0.032656066 0.018950302 9.6896986e-41
0.037101794 -0.032482181 0.019558353 2.1790191e-42
0.042157803 -0.033019077 0.019730678 1.4587517e-42
0.054888215 -0.03384582 0.019317023 1.9024028e-40
0.069217712 -0.032005571 0.019755529 1.8692761e-40
0.072951093 -0.032441579 0.019526633 1.8160828e-42
0.07775405 -0.032267362 0.01919977 1.0972167e-42
0.082636051 -0.03236109 0.01863258 2.5419554e-42
0.087788969 -0.032431915 0.018000199 3.9852928e-42
0.09262865 -0.032410316 0.017563947 9.5824993e-41
0.097530693 -0.032382883 0.017547699 1.8838496e-40
0.10232882 -0.032293703 0.01758937 2.2177776e-39
0.10706814 -0.032156039 0.017287269 5.2620355e-39
0.11108939 -0.030810706 0.016732937 3.2340862e-39
-0.045997646 -0.029401306 0.016389506 1.7063803e-38
-0.042116381 -0.028026443 0.016226558 1.402026e-38
-0.037423223 -0.027527167 0.016360987 6.4587766e-39
-0.032509875 -0.027441772 0.016574658 2.217772e-39
-0.027472971 -0.02736729 0.016608171 1.573483e-39
-0.022415603 -0.027353624 0.016476555 4.6785712e-40
-0.017523037 -0.027376246 0.016346797 9.9068999e-41
-0.012582084 -0.027487427 0.016433023 9.834733e-41
-0.0076398682 -0.027445382 0.016498996 5.4300315e-42
-0.0025233717 -0.027383387 0.016574757 5.0698978e-42
0.0026239457 -0.027347626 0.016827647 3.9880954e-42
0.0077209217 -0.027352076 0.017263742 3.2664267e-42
0.012671268 -0.027335269 0.017572561 3.9880954e-42
0.01755793 -0.027417114 0.0175856 1.9053876e-40
0.022243943 -0.027482267 0.01775532 2.5405541e-42
0.027242888 -0.027580671 0.018567136 9.6538254e-41
0.032055557 -0.027448095 0.019224571 2.8964839e-42
0.036644936 -0.027748644 0.019756453 1.8174841e-42
0.041782696 -0.02881168 0.019974489 1.460153e-42
0.049076241 -0.026772661 0.019960251 9.3288643e-41
0.063789152 -0.026075089 0.019850535 3.7835059e-43
0.068419956 -0.026947573 0.019540429 1.4587517e-42
0.072582468 -0.027281944 0.019249074 9.3654382e-41
0.077522427 -0.027281228 0.018737042 1.4587517e-42
0.082651913 -0.027255565 0.018269241 3.6237578e-42
0.087723397 -0.027333058 0.017789343 2.9020891e-42
0.092602916 -0.027405756 0.017536778 2.1818217e-42
0.097508371 -0.027314804 0.017510185 9.5823592e-41
0.10241446 -0.027349517 0.017553478 2.8057919e-40
0.10736297 -0.027367903 0.017454177 1.7560778e-39
0.11232848 -0.02723437 0.017302824 5.076924e-39
0.11655088 -0.026216671 0.017020375 4.5244648e-39
-0.040790364 -0.02433392 0.016008699 1.7616973e-38
-0.036943883 -0.02287915 0.016135823 1.383623e-38
-0.032286942 -0.022467002 0.016448639 8.1182993e-39
-0.027332146 -0.022488903 0.016665082 2.7709472e-39
-0.022422524 -0.022330167 0.016674517 1.6656786e-39
-0.017667912 -0.022348069 0.01659606 1.1135881e-39
-0.012668876 -0.022478551 0.01638259 1.919877e-40
-0.0075904066 -0.022483906 0.016296588 9.8710266e-41
-0.0024499097 -0.022361262 0.016444558 5.4314328e-42
0.0026394164 -0.022382393 0.016813973 3.9880954e-42
0.0077153137 -0.022373004 0.017417861 3.267828e-42
0.012635382 -0.022411644 0.017613411 1.9018002e-40
0.01748025 -0.022442235 0.017640648 2.9020891e-42
0.022260906 -0.022542527 0.01797629 9.5459254e-41
0.027088301 -0.022606285 0.018865025 3.2580189e-42
0.032089956 -0.022584725 0.019483123 1.8188854e-42
0.036548838 -0.022646254 0.019916119 1.460153e-42
0.04764019 -0.021754881 0.019794054 7.4128689e-43
0.052196182 -0.02141133 0.019759752 1.1000193e-42
0.058252618 -0.021295857 0.019646991 1.4573504e-42
0.062842377 -0.021690426 0.019366693 1.8188854e-42
0.067778349 -0.02212522 0.019006077 1.4573504e-42
0.072595067 -0.022215974 0.018608199 1.0958154e-42
0.077637725 -0.02230023 0.018269213 3.9824902e-42
0.082585946 -0.022433871 0.017828362 9.5097719e-41
0.087650195 -0.022448773 0.017633609 2.1818217e-42
0.09263128 -0.022446303 0.017566442 2.9020891e-42
0.097539485 -0.022464473 0.017444532 3.2664267e-42
0.10241488 -0.022386672 0.017562909 3.9894967e-42
0.10736724 -0.022395251 0.017502042 2.8058059e-40
0.11241749 -0.022497337 0.017618505 1.386575e-39
0.1174347 -0.022362992 0.017501546 5.2609565e-39
0.12201024 -0.021650089 0.017078886 5.7237311e-39
0.12606403 -0.020248495 0.016207229 6.3691173e-39
-0.036182515 -0.019468106 0.015649185 1.8815871e-38
-0.031772334 -0.018312009 0.016196528 1.3651841e-38
-0.027335333 -0.017654119 0.016492492 8.3945275e-39
-0.022468517 -0.017471818 0.016778592 4.0609672e-39
-0.01760128 -0.017571572 0.016760919 1.8497112e-39
-0.01264356 -0.017516622 0.016573334 8.3699978e-40
-0.0076529067 -0.017624112 0.016331064 1.9126743e-40
-0.0024598099 -0.017551107 0.01634795 9.7627063e-41
0.0027301726 -0.017563732 0.016897999 3.267828e-42
0.0076482547 -0.017553894 0.017540831 9.7265528e-41
0.012624109 -0.017538028 0.017592927 9.6180923e-41
0.01747031 -0.017588561 0.017667398 3.2622228e-42
0.022094775 -0.017622033 0.018471932 4.3412226e-42
0.027151771 -0.017741337 0.019158831 2.5377515e-42
0.032076906 -0.017877998 0.019682527 2.1776178e-42
0.036977701 -0.017059969 0.019802613 2.1776178e-42
0.041554 -0.016611608 0.019756334 1.4629556e-42
0.047972299 -0.016629014 0.019658301 2.1762165e-42
0.053071864 -0.016947318 0.019569218 1.8174841e-42
0.057854302 -0.017202046 0.019358862 2.1804204e-42
0.062694788 -0.017276082 0.01878093 1.4559491e-42
0.067527644 -0.017332962 0.018347781 1.4559491e-42
0.072502874 -0.017442666 0.018018121 9.6538254e-41
0.077506714 -0.017450523 0.017830431 3.2636241e-42
0.08258418 -0.017591786 0.017619999 2.9020891e-42
0.087589256 -0.017568476 0.017460346 3.2636241e-42
0.092571072 -0.017593961 0.017532583 3.2650254e-42
0.097474799 -0.017570756 0.017534694 3.2650254e-42
0.1024489 -0.017533083 0.017511912 3.6251591e-42
0.10740722 -0.017560599 0.017610611 3.9880954e-42
0.11241966 -0.017503001 0.017526062 1.8874369e-40
0.11743242 -0.01750363 0.017614778 9.2631434e-40
0.1224071 -0.017309422 0.017535821 4.5230299e-39
0.12723011 -0.017132716 0.017319616 5.1705615e-39
0.13107237 -0.01599787 0.016683783 2.4050542e-39
-0.030450165 -0.014429425 0.015862705 1.8078317e-38
-0.02675196 -0.013341951 0.016166851 1.5495752e-38
-0.022317374 -0.012726906 0.016515411 9.5930693e-39
-0.017463816 -0.012665163 0.016804671 3.6911042e-39
-0.012504802 -0.012415292 0.016858691 1.2039788e-39
-0.0076359203 -0.012454933 0.016722966 5.5932968e-40
-0.0024608991 -0.012579479 0.016482772 9.7627063e-41
0.0027789613 -0.012583528 0.017122386 9.6905394e-41
0.0075803585 -0.012668157 0.017595485 9.7984394e-41
0.012591082 -0.012615092 0.017629212 2.9020891e-42
0.017441273 -0.012607238 0.017902972 9.6539655e-41
0.022263512 -0.012705502 0.018650673 3.7132588e-40
0.027206181 -0.012574629 0.019261807 6.4791557e-40
0.032060347 -0.012458832 0.019538712 2.1776178e-42
0.037796274 -0.011847558 0.01961552 2.1776178e-42
0.042778131 -0.011828514 0.019605916 1.460153e-42
0.04787406 -0.011984411 0.019435631 2.1818217e-42
0.052851379 -0.01220514 0.01912717 2.5405541e-42
0.057601549 -0.012333298 0.018709209 1.4545478e-42
0.062641151 -0.012356961 0.018213151 2.1776178e-42
0.067464635 -0.01250592 0.017822154 9.690119e-41
0.072428524 -0.012626768 0.017731745 9.5820789e-41
0.07751359 -0.012591394 0.017613834 3.2636241e-42
0.082556352 -0.012623638 0.017547894 3.9866941e-42
0.087607406 -0.0126359 0.017615018 3.9866941e-42
0.09263368 -0.012678275 0.017550327 3.9852928e-42
0.097558767 -0.012601574 0.017543523 3.6251591e-42
0.1023834 -0.012621898 0.017490631 3.2664267e-42
0.10735359 -0.012611758 0.017534465 3.2664267e-42
0.11240235 -0.012617065 0.017565731 3.9880954e-42
0.11746713 -0.012583894 0.017583054 2.8058059e-40
0.12258124 -0.012507753 0.017588276 7.4228321e-40
0.1275108 -0.012458542 0.017568147 3.7851033e-39
0.13227162 -0.012407213 0.017513474 6.1843575e-39
0.13676214 -0.011521764 0.016883723 4.2493241e-39
0.14032857 -0.010536283 0.016544787 1.0243118e-38
-0.025206009 -0.0098417979 0.015702261 1.7618062e-38
-0.02141892 -0.0087706828 0.016212432 1.6049649e-38
-0.017364439 -0.0078862356 0.016414199 9.7778207e-39
-0.012506007 -0.0076702177 0.016838247 3.5067116e-39
-0.0075492337 -0.0075131557 0.016786965 2.8058059e-40
-0.002445874 -0.0075754505 0.016768998 3.7313355e-40
0.0026277865 -0.0075568315 0.017432669 2.8382179e-40
0.00764158 -0.007576494 0.01755105 3.2650254e-42
0.012553666 -0.0076137637 0.017507818 9.6539655e-41
0.017357858 -0.0075662285 0.018019764 2.7985612e-40
0.022495564 -0.007331111 0.018497465 6.5552896e-39
0.027128909 -0.0072844871 0.018636739 6.0961164e-39
0.032103084 -0.0072389338 0.019316301 6.1832589e-39
0.037778679 -0.0073260465 0.019425124 1.8188854e-42
0.042705249 -0.0072656954 0.019249942 2.1790191e-42
0.047718145 -0.0072946134 0.018881189 2.9006878e-42
0.052764963 -0.0073464559 0.018345978 1.8160828e-42
0.057657532 -0.0073935916 0.017864987 2.5377515e-42
0.062504798 -0.0074925655 0.017696952 9.7621458e-41
0.067396119 -0.0075607346 0.017554672 9.582219e-41
0.072389565 -0.0076362845 0.017551724 3.2664267e-42
0.077461086 -0.0076450286 0.017536161 4.3482291e-42
0.082546212 -0.0076184231 0.017562337 4.3482291e-42
0.087602653 -0.0076037822 0.017563388 4.3482291e-42
0.092681825 -0.0076166741 0.017612791 4.3468278e-42
0.09752506 -0.0076180995 0.017557338 3.9866941e-42
0.10233665 -0.0076054684 0.017526772 3.6265604e-42
0.10737868 -0.0076142824 0.017600521 3.6251591e-42
0.11240707 -0.0076127369 0.017602889 3.2664267e-42
0.11747363 -0.0076140692 0.0174897 3.6279617e-42
0.12255397 -0.0075621423 0.017537447 1.8838356e-40
0.1276108 -0.0075142798 0.017653057 6.4972605e-40
0.13244338 -0.0075035612 0.017540528 2.4014458e-39
0.13729103 -0.0073391953 0.017513962 4.523753e-39
0.14207424 -0.0068025505 0.016997561 2.4961624e-39
0.14564247 -0.0054783961 0.016526768 3.0518487e-39
-0.01617744 -0.003865923 0.015954029 1.57727e-38
-0.012249668 -0.0028983327 0.016591249 1.0515028e-38
-0.0074372408 -0.002590915 0.016930044 2.9524574e-39
-0.0024194301 -0.0024329247 0.017018137 5.5824928e-40
0.0025843279 -0.0025597555 0.017431568 2.8310012e-40
0.0075926818 -0.0025564164 0.017653288 2.5433567e-42
0.012549559 -0.0025156948 0.017478714 9.690119e-41
0.017353222 -0.0024911768 0.017945867 1.0188631e-39
0.022545625 -0.00252091 0.017834622 4.897576e-39
0.027243078 -0.0025074191 0.018318348 6.1886777e-39
0.032307677 -0.0024441348 0.018849103 8.0296952e-39
0.037629701 -0.0023508254 0.018777909 2.5391528e-42
0.042615704 -0.0022892861 0.018509442 3.6209552e-42
0.047686461 -0.0022803906 0.017938169 1.4545478e-42
0.052695394 -0.0024013054 0.017718896 2.5391528e-42
0.057562519 -0.0025378831 0.017603727 1.8981849e-40
0.062415574 -0.0025141672 0.017566409 9.6182324e-41
0.067346461 -0.0025547133 0.017527251 3.9852928e-42
0.072374873 -0.0025483938 0.017486885 5.0684965e-42
0.077485733 -0.0025411355 0.017539363 9.7265528e-41
0.082512178 -0.0025571582 0.017596392 5.0698978e-42
0.087607495 -0.0025243117 0.01760776 5.0684965e-42
0.092671059 -0.0025283552 0.017599538 4.7083628e-42
0.097497202 -0.0025376587 0.01759129 4.3482291e-42
0.10239844 -0.0025380552 0.017624382 3.9866941e-42
0.10736959 -0.0025120743 0.017587654 3.6265604e-42
0.1124374 -0.0025499861 0.017581265 3.2650254e-42
0.11747763 -0.0025348531 0.017532876 3.2664267e-42
0.12255666 -0.002504732 0.017526997 3.6265604e-42
0.12758262 -0.0024696856 0.017578458 9.5826394e-41
0.13254707 -0.0025465575 0.017561195 9.259542e-40
0.13747829 -0.0024981666 0.017485607 2.2170532e-39
0.14229515 -0.0022730196 0.017493021 3.8773004e-39
0.14704308 -0.0020692695 0.01718984 2.4950848e-39
0.15048185 -0.000914031 0.016255638 1.930723e-40
-0.011403881 0.0011709657 0.016504295 1.7524775e-38
-0.0072513944 0.0022532749 0.016956862 9.7778221e-39
-0.0024322588 0.0024892825 0.01742168 2.7720304e-39
0.0025538213 0.0025315939 0.017611401 1.8946676e-40
0.0075762975 0.002599678 0.01770469 3.2650254e-42
0.012615138 0.002564647 0.017496426 9.6542458e-41
0.017381649 0.0026217799 0.017608732 9.6182324e-41
0.02250112 0.0025113504 0.017979087 4.3411526e-39
0.027303249 0.0025754527 0.018215057 6.3708998e-39
0.032536156 0.0027311502 0.018158978 2.7705745e-39
0.037594695 0.0027465827 0.017876923 9.617812e-41
0.042603262 0.0026517804 0.017722232 2.1776178e-42
0.047579888 0.0026067414 0.017694166 9.5456451e-41
0.052623607 0.0025248979 0.017643057 1.9018002e-40
0.057504132 0.0025366829 0.017532881 9.6183725e-41
0.062367052 0.0025279222 0.0175335 4.3482291e-42
0.067344412 0.0025158073 0.017494289 5.4300315e-42
0.072406121 0.002523941 0.01755335 5.4314328e-42
0.077467851 0.0025450934 0.017599728 9.7625661e-41
0.08253634 0.0025445295 0.017623179 5.4300315e-42
0.087626614 0.0025462524 0.017610449 5.4300315e-42
0.092651851 0.0025135186 0.017536948 9.6905394e-41
0.097565278 0.0025538877 0.017553974 5.0684965e-42
0.10242623 0.0025274586 0.017629089 4.7083628e-42
0.10742778 0.0025132077 0.0176118 4.3468278e-42
0.11242003 0.0025534786 0.017574178 3.9852928e-42
0.11747118 0.0025564167 0.017557206 3.6265604e-42
0.12255415 0.0025467034 0.017513867 3.2664267e-42
0.12761942 0.0025081635 0.017510345 3.6265604e-42
0.13262345 0.002528281 0.017491253 9.546626e-41
0.13754331 0.0026020622 0.017494174 6.4972605e-40
0.14241202 0.0025797561 0.017536405 1.6635192e-39
0.14723726 0.002659759 0.017566821 3.3237651e-39
0.15196609 0.0027560112 0.017279528 2.8642288e-39
0.15513097 0.0043931846 0.016113594 1.2990611e-39
-0.0060416111 0.0060275816 0.016491557 1.6141841e-38
-0.0021000572 0.0070640002 0.017092843 8.026831e-39
0.0026183112 0.0075022667 0.017339198 1.8486322e-39
0.0076054283 0.0075659552 0.017577436 1.8838356e-40
0.012632222 0.0076320535 0.017574193 2.9048917e-42
0.017549748 0.007610688 0.017529545 9.7622859e-41
0.022405153 0.0076025869 0.0175409 4.3468278e-42
0.027395304 0.0077307275 0.017655492 3.9852928e-42
0.032495458 0.0076033273 0.01766183 9.6899789e-41
0.037487704 0.0076247058 0.017640298 2.9006878e-42
0.042597275 0.0076454948 0.017595928 9.6180923e-41
0.047585092 0.0076330993 0.01755682 1.9054296e-40
0.052658614 0.007558913 0.017350303 3.9880954e-42
0.057611611 0.0075924429 0.017358171 4.7083628e-42
0.062430505 0.0076076929 0.017411301 9.7625661e-41
0.067364246 0.0075840941 0.017451188 9.7627063e-41
0.072451115 0.0076081501 0.017521547 5.7929679e-42
0.077515282 0.0075902459 0.017551323 5.7915666e-42
0.082568906 0.0075719757 0.017593952 9.7627063e-41
0.08758653 0.0076088589 0.017624218 9.7625661e-41
0.092637621 0.0076161344 0.017585851 5.4300315e-42
0.097517036 0.0075874496 0.01762474 5.4286303e-42
0.10235833 0.0075976793 0.017570604 4.7083628e-42
0.10730065 0.0076125739 0.017646167 4.7069615e-42
0.11240327 0.0076080887 0.017592238 4.3468278e-42
0.11748695 0.0076131579 0.017595809 3.9866941e-42
0.12253226 0.0076143052 0.017573753 3.6265604e-42
0.12759194 0.0076057068 0.017615793 3.6265604e-42
0.13256425 0.0075737964 0.017613295 3.6279617e-42
0.13749835 0.0076305415 0.017470745 9.5106127e-41
0.14239945 0.0076434528 0.017462844 3.7277902e-40
0.14734977 0.0075757401 0.017624054 9.2631574e-40
0.15233013 0.0077103022 0.017528158 4.1546075e-39
0.15631038 0.0081845149 0.017037753 5.5389881e-39
-0.0011237457 0.011426413 0.015970934 1.4668872e-38
0.002908563 0.012298425 0.016869429 8.7654736e-39
0.0077097705 0.012520812 0.017355097 1.8486336e-39
0.012644911 0.012590608 0.017521378 1.8838216e-40
0.017575726 0.012615403 0.017636446 2.9048917e-42
0.022448536 0.012574433 0.017563492 3.6237578e-42
0.027350206 0.01265477 0.017571054 3.6251591e-42
0.032406744 0.012614451 0.017623387 3.2636241e-42
0.037477214 0.01261993 0.017581053 9.7262725e-41
0.042481996 0.01254015 0.017422065 1.9054296e-40
0.047547523 0.012540563 0.017140403 3.9894967e-42
0.052634884 0.01257917 0.017102046 4.7083628e-42
0.057580102 0.012555391 0.017277513 9.7987196e-41
0.062422968 0.012637596 0.017394198 9.7988598e-41
0.067337394 0.012618783 0.017434102 9.7988598e-41
0.072416127 0.012619073 0.017491475 9.8348731e-41
0.077481173 0.01262684 0.017571606 9.834733e-41
0.08254277 0.012600406 0.017546931 9.7987196e-41
0.087620795 0.012615747 0.017543882 9.7627063e-41
0.092638455 0.012633306 0.017511571 9.7625661e-41
0.097543165 0.012656363 0.017571649 9.7266929e-41
0.10246079 0.012645858 0.017547376 5.0684965e-42
0.10736869 0.012656961 0.017546365 5.0684965e-42
0.11239135 0.012636487 0.017631497 4.7083628e-42
0.11747622 0.012674174 0.017574165 4.3482291e-42
0.12257381 0.012607039 0.017554998 3.9880954e-42
0.12761045 0.01266459 0.017657895 3.9866941e-42
0.13264927 0.012628966 0.017558469 3.267828e-42
0.13760383 0.012614543 0.017568849 3.6265604e-42
0.14244165 0.01262494 0.017477361 3.2692293e-42
0.14733854 0.012616349 0.01739718 3.7277622e-40
0.15239602 0.012537034 0.017552014 8.3520471e-40
0.15664203 0.012586878 0.017707327 4.5237586e-39
0.0040092831 0.016133429 0.016561775 1.3654004e-38
0.007903913 0.017151305 0.016700303 1.0056573e-38
0.012699081 0.017441778 0.017484561 2.9557028e-39
0.01756553 0.017495124 0.017555887 3.7349649e-40
0.022457415 0.017514853 0.017588908 3.629363e-42
0.027373573 0.017586391 0.017607877 3.9880954e-42
0.032408327 0.017579859 0.017585274 1.9054296e-40
0.0373956 0.017483242 0.017286245 1.909059e-40
0.042432908 0.017491587 0.01694176 9.654526e-41
0.047622886 0.017568363 0.016825186 5.4300315e-42
0.0526531 0.017521841 0.017008826 9.7987196e-41
0.057637833 0.01759568 0.017229185 9.8710266e-41
0.062424608 0.017627278 0.017360758 9.8710266e-41
0.067425489 0.017486012 0.017463896 9.8708865e-41
0.072426565 0.01752243 0.017392861 9.8708865e-41
0.077500261 0.017571146 0.017513458 9.8707464e-41
0.082581349 0.017584454 0.017490534 9.834733e-41
0.087588325 0.017621249 0.017560298 9.834733e-41
0.092605717 0.01758505 0.017553382 9.7987196e-41
0.097527117 0.017523952 0.017592657 9.7627063e-41
0.1023749 0.017609218 0.017600363 9.7625661e-41
0.10736794 0.01753558 0.017566282 5.0698978e-42
0.1123995 0.01752224 0.017556773 5.0698978e-42
0.11746643 0.017647408 0.01757683 4.7083628e-42
0.12255399 0.017546682 0.017560262 4.3482291e-42
0.12761921 0.017605327 0.017569229 3.9880954e-42
0.132585 0.017551744 0.01756425 3.6265604e-42
0.13752806 0.017591517 0.017552638 3.6251591e-42
0.14242986 0.017551083 0.017492155 3.6265604e-42
0.14737029 0.017559661 0.017448433 3.2692293e-42
0.15245864 0.017537909 0.017397108 3.7349789e-40
0.15710115 0.017699381 0.017450524 2.7713227e-39
0.16047293 0.018416217 0.018350579 1.0332809e-38
0.0092844507 0.021060279 0.015954832 1.3377049e-38
0.012878296 0.02209329 0.016938658 1.0148765e-38
0.017558945 0.022354327 0.017437262 4.0620518e-39
0.022492183 0.022398818 0.017506054 7.4300208e-40
0.027327973 0.022444662 0.017566923 3.7601742e-40
0.032390483 0.022442566 0.017488522 2.8273999e-40
0.037413988 0.022452287 0.017296365 1.8946396e-40
0.042457569 0.022401102 0.016867619 9.8348731e-41
0.047610682 0.022462107 0.016751125 9.8708865e-41
0.052672021 0.022451725 0.016890772 9.90704e-41
0.057535872 0.022432471 0.017155005 9.90704e-41
0.062428422 0.022405213 0.017322695 9.8710266e-41
0.06738463 0.022411644 0.017315611 9.8708865e-41
0.07242243 0.022375658 0.017343957 9.8710266e-41
0.077496909 0.022418847 0.017349768 9.8707464e-41
0.082555927 0.022409357 0.017475173 9.8707464e-41
0.08761654 0.022466468 0.017467216 9.834733e-41
0.092620216 0.022447458 0.017478084 9.7987196e-41
0.097509228 0.02240837 0.017525423 9.7987196e-41
0.10235263 0.022385873 0.017509678 9.7627063e-41
0.10736528 0.02240878 0.017575892 9.7265528e-41
0.11239497 0.022437913 0.017578246 5.0698978e-42
0.11744833 0.022417691 0.017580951 5.0684965e-42
0.12257 0.022427207 0.017648377 5.0684965e-42
0.12763658 0.022414977 0.017605934 4.3496304e-42
0.13268469 0.022472054 0.017590931 4.3482291e-42
0.13753027 0.022453135 0.017561762 3.9866941e-42
0.14243455 0.022419261 0.017531671 3.6265604e-42
0.14738572 0.022416105 0.017558737 3.6279617e-42
0.15232415 0.022506675 0.01757648 9.6187929e-41
0.15723404 0.022475185 0.017310478 1.9412019e-39
0.16036336 0.022091806 0.017188769 1.2729534e-38
0.013876618 0.026047949 0.015790114 1.4852906e-38
0.018049436 0.026715096 0.016859794 1.217779e-38
0.022602784 0.027221292 0.017191574 6.0910745e-39
0.027403036 0.027335329 0.017460611 1.2947353e-39
0.032431003 0.027424563 0.017467514 1.8766049e-40
0.03745082 0.027400207 0.017420631 6.5116238e-40
0.042471305 0.027519749 0.017233757 4.6785572e-40
0.047576431 0.027489105 0.016903117 9.9790668e-41
0.052625626 0.027402552 0.016971158 1.001508e-40
0.057504132 0.02742273 0.017006088 9.9431935e-41
0.062392216 0.02733092 0.017126128 9.90704e-41
0.067413509 0.027356874 0.017277997 9.90704e-41
0.072427899 0.027374528 0.017310522 9.90704e-41
0.077523507 0.027405245 0.017274827 9.8710266e-41
0.082549132 0.027362946 0.017370595 9.9067598e-41
0.087613985 0.027379002 0.017493352 9.8707464e-41
0.092652895 0.027356541 0.017502565 9.8348731e-41
0.097572424 0.027368845 0.017466234 9.7987196e-41
0.10243178 0.027369743 0.017523462 9.7987196e-41
0.10738807 0.027364247 0.017549917 9.7625661e-41
0.11242282 0.027387515 0.017488517 9.7265528e-41
0.11747444 0.027372705 0.017566402 5.0698978e-42
0.12251785 0.027391775 0.017554767 5.0698978e-42
0.12764286 0.027365256 0.017626209 4.7083628e-42
0.13259578 0.027386867 0.017493639 4.7083628e-42
0.13756484 0.027355403 0.017584344 4.3482291e-42
0.14242665 0.027377443 0.017589519 3.9866941e-42
0.14736485 0.027395668 0.0175987 3.9866941e-42
0.15239432 0.027358806 0.017603522 4.3538343e-42
0.15707567 0.027476298 0.01738799 2.3096243e-39
0.16032349 0.026895568 0.016351255 1.3654006e-38
0.01953586 0.03069289 0.015261565 1.7250358e-38
0.023229163 0.031174397 0.01630307 1.4759269e-38
0.027731178 0.031889427 0.016935753 9.9618532e-39
0.032595366 0.032281991 0.017503524 3.3219616e-39
0.037488274 0.032376464 0.017359493 9.2558987e-40
0.042504683 0.032420568 0.017366 1.0199477e-39
0.047564939 0.032485683 0.017340787 5.6005135e-40
0.052563705 0.032496065 0.01715461 1.919891e-40
0.057571899 0.032466646 0.01712117 1.919877e-40
0.062448576 0.032402225 0.017130323 1.9162756e-40
0.067402758 0.032403335 0.017223883 9.9792069e-41
0.072484478 0.03238539 0.017192751 9.9430534e-41
0.077543624 0.03238691 0.017260976 9.9430534e-41
0.082605444 0.032357924 0.017392766 9.9068999e-41
0.087619163 0.032379512 0.017397137 9.8707464e-41
0.092632033 0.032412414 0.017508803 9.8708865e-41
0.097585849 0.032389112 0.017552495 9.8348731e-41
0.10237908 0.032424159 0.017461877 9.7987196e-41
0.10738066 0.032411292 0.017464217 9.7628464e-41
0.11240186 0.032415755 0.017472859 9.7627063e-41
0.11749594 0.03239999 0.017465623 9.7265528e-41
0.12257137 0.032414008 0.017538935 5.0698978e-42
0.12763965 0.032425143 0.017554782 4.7097641e-42
0.13260156 0.032352921 0.017549351 4.7083628e-42
0.13758172 0.032400154 0.017541241 4.7083628e-42
0.14243481 0.032413084 0.017503556 4.3482291e-42
0.14735217 0.03242109 0.017522443 4.3482291e-42
0.15236484 0.032396585 0.017516216 9.7271133e-41
0.15705873 0.032367103 0.017258108 3.693279e-39
0.16036637 0.032149568 0.016229691 1.2363623e-38
0.028384831 0.035740588 0.015752899 1.6971605e-38
0.033286113 0.036848921 0.016715739 9.7785423e-39
0.037698716 0.037315015 0.017400887 3.9673338e-39
0.042551629 0.037473522 0.017337784 1.2018194e-39
0.047610208 0.037438408 0.017200259 7.4336081e-40
0.052617587 0.037430946 0.017362399 5.5969122e-40
0.057557337 0.037491497 0.017305432 4.6857459e-40
0.062390931 0.03747949 0.017137405 1.919877e-40
0.067362644 0.037454065 0.017160298 1.9234783e-40
0.072435275 0.037394036 0.017104514 9.9790668e-41
0.077509865 0.037436225 0.017167743 9.9430534e-41
0.082570195 0.037475344 0.017251372 9.9429133e-41
0.087647051 0.037457086 0.017439632 9.9429133e-41
0.092625096 0.037448034 0.017448299 9.9067598e-41
0.097533755 0.037461989 0.017543623 9.8348731e-41
0.10240652 0.037471805 0.017556762 9.8348731e-41
0.10738212 0.037465397 0.01751788 9.7987196e-41
0.1124119 0.037481155 0.017521728 9.7987196e-41
0.11744978 0.037459437 0.017571948 9.7627063e-41
0.1225826 0.037453655 0.017547706 5.0698978e-42
0.12763192 0.03748795 0.017531227 4.7097641e-42
0.13260368 0.037470214 0.017549325 4.7097641e-42
0.13752268 0.037463285 0.01755912 4.7083628e-42
0.14240161 0.03747325 0.017597273 4.7083628e-42
0.14740528 0.037470251 0.017492916 9.7628464e-41
0.15238801 0.037425544 0.017439289 1.3883771e-39
0.15658998 0.037097897 0.017193645 5.3528046e-39
0.034101546 0.04053463 0.015504566 1.6050368e-38
0.038273454 0.041498307 0.017214846 1.2360021e-38
0.04270355 0.042163346 0.017277194 4.6130633e-39
0.047569651 0.042443451 0.017215688 9.248724e-40
0.052676376 0.042472329 0.017335432 5.5824928e-40
0.057509292 0.042525254 0.017399767 4.6749559e-40
0.062385689 0.04257388 0.017311687 2.8418473e-40
0.067375273 0.042559296 0.017103935 1.919891e-40
0.072469689 0.042569071 0.017078033 1.9234783e-40
0.077457286 0.042544201 0.017140396 1.001508e-40
0.082641102 0.042520817 0.017318765 9.9790668e-41
0.087583572 0.042574171 0.017418826 9.9430534e-41
0.092664182 0.042545013 0.017450344 9.9068999e-41
0.097559348 0.042515259 0.01747819 9.8708865e-41
0.10237525 0.042556118 0.017513884 9.8708865e-41
0.1073722 0.042501949 0.017507004 9.8348731e-41
0.11244171 0.042531032 0.017588228 9.7988598e-41
0.11751075 0.042543445 0.017489355 5.7915666e-42
0.12257685 0.042540599 0.017556354 5.0712991e-42
0.12764132 0.042561997 0.017587591 5.0698978e-42
0.13262476 0.042533901 0.017532669 4.7097641e-42
0.13750638 0.042509899 0.017494 4.7111654e-42
0.14240766 0.042533092 0.017457323 9.7628464e-41
0.1473154 0.042477351 0.017500125 1.9419096e-39
0.15206578 0.042218003 0.0172609 4.6148738e-39
0.1556121 0.041246269 0.017220117 8.5810908e-39
0.039564606 0.046871673 0.015319295 1.7894644e-38
0.043654945 0.04687373 0.017058525 1.3282338e-38
0.047738522 0.047405384 0.017121816 5.535021e-39
0.052653193 0.047546152 0.017220113 1.1089049e-39
0.057601556 0.047443613 0.017218746 9.2739194e-40
0.06251131 0.047550961 0.017330188 3.7566009e-40
0.067397371 0.047600187 0.017224476 2.8418333e-40
0.072435774 0.047593389 0.01731316 1.919891e-40
0.077505127 0.047620013 0.017257737 1.9234643e-40
0.0825601 0.04757648 0.01732553 1.919863e-40
0.087652721 0.047602866 0.017358392 9.9429133e-41
0.092654683 0.047558591 0.017396202 9.9068999e-41
0.097583301 0.047636092 0.01742113 9.9068999e-41
0.10251182 0.04758098 0.017492084 9.9068999e-41
0.10737734 0.047602385 0.017515428 9.8710266e-41
0.11241525 0.047611579 0.017524738 9.7988598e-41
0.11747915 0.04759505 0.017516145 5.7915666e-42
0.12253542 0.047613166 0.017520454 5.0712991e-42
0.12758434 0.04763256 0.017464846 5.0698978e-42
0.13259365 0.047609624 0.017456155 5.0712991e-42
0.1375816 0.04755298 0.017478274 2.8202253e-40
0.14241554 0.047528192 0.017465098 2.4950862e-39
0.14714132 0.047278933 0.01711073 5.9981698e-39
0.15124632 0.046160646 0.016834741 9.0427906e-39
0.048395332 0.051584754 0.016502121 1.4572719e-38
0.052784678 0.052121371 0.017206108 5.6272167e-39
0.057559468 0.052487642 0.017311784 1.9390243e-39
0.062510528 0.052500844 0.017291117 7.4264194e-40
0.067441508 0.052573435 0.017304238 6.5188685e-40
0.072433606 0.052536707 0.017374769 3.7566009e-40
0.077500507 0.052566152 0.017404607 1.9162616e-40
0.082594454 0.052567743 0.017438607 1.9234643e-40
0.087582223 0.052594919 0.017445816 1.001508e-40
0.092590243 0.052626722 0.017459534 1.9162616e-40
0.097541876 0.05256075 0.017485088 1.9162476e-40
0.10245387 0.052654285 0.017520053 1.9126603e-40
0.10739511 0.052632246 0.017561303 9.8710266e-41
0.11239488 0.052628621 0.017408287 5.7929679e-42
0.11747465 0.052624285 0.017509298 5.4314328e-42
0.12254121 0.052639119 0.017519534 5.0698978e-42
0.12759024 0.052618045 0.01746673 5.0727004e-42
0.1325199 0.052601874 0.017392928 2.8202533e-40
0.13750204 0.052483138 0.0174175 3.3248497e-39
0.14209493 0.052064221 0.017201029 7.4740215e-39
0.1460693 0.050767679 0.016759472 1.0517921e-38
0.04908026 0.055106618 0.015073165 1.8908065e-38
0.053249117 0.05665423 0.015929591 1.4480887e-38
0.058025196 0.056994904 0.017524833 6.5495331e-39
0.062632151 0.057470426 0.017430834 3.2294058e-39
0.067508794 0.057551615 0.017360831 1.0185086e-39
0.072481595 0.057547346 0.017246118 3.7457689e-40
0.077469319 0.057524737 0.017338589 3.7565869e-40
0.082531855 0.057433069 0.017407442 1.919877e-40
0.087616682 0.057599235 0.01746835 1.919877e-40
0.092585348 0.057553567 0.017502239 1.919877e-40
0.097557917 0.057434373 0.01749659 1.9162756e-40
0.10240291 0.057579368 0.017562205 1.9126603e-40
0.10738945 0.057517041 0.017501326 9.8348731e-41
0.11244012 0.057554487 0.017555406 5.4328341e-42
0.1174579 0.057547834 0.017540865 5.4314328e-42
0.12251667 0.057490215 0.01748297 5.0741017e-42
0.12755039 0.057518385 0.017479019 4.6677952e-40
0.13251255 0.057423823 0.017335555 3.602161e-39
0.13690273 0.056900911 0.016955346 9.2260986e-39
0.1409889 0.05547981 0.015901735 1.4759643e-38
0.058297876 0.061147954 0.016072189 1.5957823e-38
0.063074559 0.062118411 0.017203426 6.8257613e-39
0.067503653 0.062275212 0.017486535 2.7680675e-39
0.07245478 0.062385634 0.017350534 8.3375577e-40
0.077490643 0.062493455 0.017352443 2.8202393e-40
0.082552783 0.062397208 0.017236512 1.9126603e-40
0.087606996 0.062440071 0.017345576 1.919877e-40
0.092573039 0.062486012 0.0174355 1.9162616e-40
0.097499363 0.06238839 0.017466882 1.9162756e-40
0.10240384 0.06245137 0.01745034 9.8350133e-41
0.1073721 0.062409882 0.017455149 5.7929679e-42
0.1123608 0.062391467 0.017513987 5.4328341e-42
0.11743453 0.062503345 0.017536979 5.4342354e-42
0.12251321 0.062384885 0.017408133 6.5081345e-40
0.12732461 0.062236018 0.017119227 4.2468116e-39
0.13190091 0.061487503 0.016788406 1.0333527e-38
0.13564903 0.060447067 0.015875828 8.0275639e-39
0.063286453 0.065773062 0.016085159 1.6601022e-38
0.068336226 0.066705875 0.017096486 4.3357562e-39
0.072717167 0.067159772 0.017171435 2.8606191e-39
0.077514678 0.067362763 0.017384406 8.3411731e-40
0.082577698 0.067376144 0.01744646 1.9054576e-40
0.08762335 0.06740772 0.017335942 1.9054576e-40
0.092569374 0.067434177 0.017377505 9.8350133e-41
0.097534448 0.067386165 0.017339302 9.8350133e-41
0.10244213 0.067440227 0.017447758 5.7943691e-42
0.10739286 0.067402951 0.017536987 5.4328341e-42
0.11240377 0.06735801 0.017463602 5.0769043e-42
0.11740968 0.067373574 0.017419539 1.0192386e-39
0.12231788 0.067183718 0.017103568 6.1829226e-39
0.12660511 0.066340216 0.016685653 1.1809022e-38
0.069099523 0.071044043 0.015145428 1.0514305e-38
0.073520944 0.071888059 0.016384192 4.7978119e-39
0.077731706 0.07214655 0.01716396 2.3078082e-39
0.082532778 0.072339818 0.017420318 1.1107028e-39
0.087631606 0.072416373 0.017517017 2.8166239e-40
0.092598304 0.07248237 0.017508958 6.1545029e-42
0.097554095 0.072417758 0.017491143 5.7943691e-42
0.10245004 0.072412401 0.017496217 5.4342354e-42
0.10742576 0.072431453 0.01743358 9.6915203e-41
0.11245489 0.072388023 0.017440572 1.7560862e-39
0.11722441 0.072164007 0.017138582 8.5803691e-39
0.12147782 0.071210638 0.016508756 1.5496839e-38
0.073990643 0.075729638 0.015661955 1.5033343e-38
0.078025363 0.076996312 0.01642721 8.1172203e-39
0.082754366 0.076956056 0.017103769 3.4145187e-39
0.087708049 0.077298917 0.017463451 1.386575e-39
0.092573933 0.077394374 0.017465876 9.2631714e-40
0.097503848 0.07744094 0.017456083 6.4937012e-40
0.10241714 0.077387869 0.017460112 8.3376278e-40
0.10727403 0.077308111 0.017232273 2.3092628e-39
0.11212204 0.076927923 0.016930455 9.6870768e-39
0.11634261 0.076158628 0.016113952 1.6235486e-38
0.078471594 0.080881022 0.015643612 1.2913564e-38
0.082587205 0.082036048 0.015921326 9.6852719e-39
0.087837249 0.081851453 0.016382355 3.6907483e-39
0.092471614 0.081959374 0.016759118 2.0312284e-39
0.097488441 0.082108006 0.016896978 3.2308562e-39
0.10230089 0.082162604 0.016592259 4.7981847e-39
0.10695711 0.081697673 0.016245712 1.0516836e-38
0.11135513 0.08075583 0.015706884 1.7066324e-38
0.084292814 0.085265338 0.015334567 1.8446018e-38
0.088144921 0.085862733 0.016061015 1.5588315e-38
0.092705444 0.086231411 0.016269211 1.3651849e-38
0.09741459 0.08596582 0.016187863 1.1440234e-38
0.10164026 0.085758828 0.016059091 1.522133e-38
-0.030088905 -0.13037686 0.020459792 1.7527661e-38
-0.027079558 -0.13060804 0.02078009 1.7618779e-38
-0.022194076 -0.13054684 0.02105554 1.8264498e-38
-0.017670883 -0.1309389 0.020563703 1.75273e-38
-0.013552688 -0.13052166 0.020346513 1.6789384e-38
-0.035891756 -0.12547342 0.021377351 1.558904e-38
-0.031943761 -0.12647662 0.021179091 1.3468894e-38
-0.027272668 -0.12704802 0.021781966 9.5026897e-39
-0.022470102 -0.12715152 0.022039775 6.0903738e-39
-0.017449979 -0.12721916 0.022150066 6.1829282e-39
-0.012883061 -0.12679552 0.022152089 8.1193994e-39
-0.0079886159 -0.12579291 0.021207122 1.0055508e-38
-0.040077798 -0.12008268 0.020881694 1.6791184e-38
-0.03667203 -0.12187413 0.021331679 1.2546219e-38
-0.03221257 -0.12232794 0.021927422 6.5517065e-39
-0.027353644 -0.12252329 0.022253141 2.3103432e-39
-0.022473644 -0.12252102 0.02213078 9.2704161e-40
-0.01753287 -0.12258023 0.022142332 4.6642079e-40
-0.012483018 -0.12248541 0.022075538 5.5862343e-40
-0.0077266553 -0.12224782 0.022098308 3.7861991e-39
-0.0031195024 -0.12181368 0.021535136 8.3041494e-39
0.00034952463 -0.12094556 0.020612774 9.8722093e-39
-0.041329801 -0.11671806 0.020912085 1.3929516e-38
-0.037228629 -0.11727895 0.021624058 8.3959764e-39
-0.032357614 -0.11745406 0.022064554 2.4947303e-39
-0.027415618 -0.11741558 0.022208503 6.5008898e-40
-0.02256423 -0.11747139 0.022255769 4.7167706e-42
-0.017549856 -0.1174688 0.021909315 9.6909598e-41
-0.012589026 -0.11741828 0.021879785 9.6549464e-41
-0.0075987573 -0.11754247 0.021984315 2.8202673e-40
-0.0026324084 -0.11743532 0.022097662 2.6802075e-39
0.0019059941 -0.11704576 0.02167332 8.9498761e-39
0.0062159593 -0.11566842 0.020765377 1.3837329e-38
-0.045650087 -0.11074392 0.020618945 1.7802091e-38
-0.041951347 -0.11212172 0.021218637 1.1716095e-38
-0.037328504 -0.11243857 0.021641508 3.7858292e-39
-0.032355413 -0.11250708 0.021960154 1.0195918e-39
-0.027383452 -0.11243893 0.02220688 9.8713069e-41
-0.02253825 -0.11243889 0.022179501 6.5146366e-42
-0.017554853 -0.11237507 0.022236852 9.7989999e-41
-0.012545558 -0.11245802 0.022100646 9.6909598e-41
-0.0075580464 -0.11246974 0.022181507 1.8910523e-40
-0.0025167572 -0.11248025 0.02217233 2.816666e-40
0.0024373294 -0.11239956 0.022172449 2.7724017e-39
0.0070227184 -0.11189901 0.021624351 7.6594974e-39
0.011324505 -0.11107058 0.020626171 1.217745e-38
-0.046661705 -0.10681073 0.02087329 1.4574521e-38
-0.042283289 -0.10748801 0.021450495 8.0275513e-39
-0.037394118 -0.10734978 0.021651711 1.3883785e-39
-0.032364946 -0.1074171 0.021791078 1.9018843e-40
-0.027354335 -0.10745934 0.021924073 1.9126743e-40
-0.022419443 -0.10740873 0.022179777 9.9073203e-41
-0.017471936 -0.10746343 0.022311138 9.9433336e-41
-0.012694585 -0.1074275 0.022166776 9.79914e-41
-0.007580067 -0.10744431 0.022175997 4.713968e-42
-0.0025857731 -0.10742448 0.022154074 4.3538343e-42
0.0025308079 -0.10743526 0.022088422 1.8911083e-40
0.0075028599 -0.10742904 0.022172036 1.9422781e-39
0.012005815 -0.10692956 0.021779301 6.9212135e-39
0.016449807 -0.10594314 0.020733798 1.0794513e-38
-0.050742641 -0.10155457 0.020509891 1.448196e-38
-0.047115542 -0.10243233 0.021142466 9.8721799e-39
-0.04241284 -0.10235043 0.021433856 3.3244923e-39
-0.037555881 -0.10243835 0.021707453 8.3520191e-40
-0.032421473 -0.10253353 0.021558082 1.9126883e-40
-0.027370894 -0.10250273 0.021670619 9.9433336e-41
-0.022433335 -0.10256331 0.021849366 1.0051514e-40
-0.017525673 -0.10257326 0.022177864 1.001536e-40
-0.012502416 -0.10254267 0.022191048 9.9073203e-41
-0.0076268525 -0.10241972 0.02230628 9.8351534e-41
-0.0025081823 -0.1023972 0.022266217 5.0741017e-42
0.0024776806 -0.1025332 0.022147348 4.7125667e-42
0.0076488918 -0.10243988 0.022190159 2.8094633e-40
0.012557932 -0.10237523 0.022138981 1.4809399e-39
0.017132483 -0.10203849 0.022036346 7.658417e-39
0.021192964 -0.10098264 0.021463316 1.3560375e-38
0.025432019 -0.10004526 0.020014085 1.6879792e-38
-0.051542331 -0.096646108 0.020998331 1.3006112e-38
-0.047271561 -0.097354606 0.021276297 5.7215815e-39
-0.042433601 -0.097456656 0.021633223 2.1259421e-39
-0.03750265 -0.097530045 0.021533499 9.8713069e-41
-0.032480005 -0.097583152 0.021331498 9.9433336e-41
-0.027319668 -0.097518221 0.021357238 1.001536e-40
-0.022406837 -0.097653344 0.021561088 9.9433336e-41
-0.017510137 -0.097616218 0.021624779 9.9433336e-41
-0.012520343 -0.09774553 0.021866033 9.979347e-41
-0.0075277551 -0.09762504 0.022045964 9.9433336e-41
-0.0025254914 -0.097514227 0.022197757 9.8352935e-41
0.0025131796 -0.097479604 0.022361396 5.4342354e-42
0.0074851583 -0.097529918 0.022217961 4.713968e-42
0.012481288 -0.097441971 0.02208801 9.69124e-41
0.017424973 -0.097476639 0.022140028 8.3592778e-40
0.022140063 -0.097209767 0.022061413 6.2751238e-39
0.026742533 -0.096064933 0.021703808 1.3375266e-38
0.030224279 -0.095365644 0.020306423 9.4123144e-39
-0.055889405 -0.092593044 0.02023096 1.2454392e-38
-0.052029386 -0.09241572 0.021095095 8.7651191e-39
-0.047420185 -0.092509136 0.021419736 3.0475397e-39
-0.04251508 -0.092749394 0.021406658 2.8202813e-40
-0.037501849 -0.092622146 0.021228997 6.5160379e-42
-0.032420546 -0.092649855 0.021092104 9.8713069e-41
-0.027577357 -0.09254609 0.021199139 9.9433336e-41
-0.022422638 -0.092691928 0.02121448 9.8351534e-41
-0.017462354 -0.092653625 0.021310754 9.7631267e-41
-0.012522767 -0.09278284 0.021325901 9.8713069e-41
-0.0074284258 -0.092667162 0.021580104 9.9073203e-41
-0.0024923272 -0.092674933 0.021841409 9.979347e-41
0.0025467877 -0.09256734 0.022117129 9.8352935e-41
0.0075184437 -0.09258882 0.022227233 5.4342354e-42
0.01251642 -0.092461631 0.02225526 5.0741017e-42
0.017491726 -0.092585959 0.022105841 9.6913802e-41
0.022445492 -0.092618488 0.022004282 6.5117639e-40
0.027293134 -0.092380665 0.022184441 5.6301117e-39
0.031788833 -0.091552444 0.021512132 1.1715744e-38
-0.055938892 -0.087015271 0.021261821 1.2729161e-38
-0.052315541 -0.087459028 0.021346841 3.6929161e-39
-0.047544543 -0.087564699 0.021514095 1.7564407e-39
-0.042493176 -0.087673247 0.021210669 9.8352935e-41
-0.037478112 -0.087565012 0.021133061 1.9126743e-40
-0.032434084 -0.08772365 0.020971166 9.8710266e-41
-0.027346376 -0.087604098 0.020975536 9.7989999e-41
-0.022533519 -0.087553874 0.021031564 9.7269732e-41
-0.017464466 -0.087611258 0.021031013 5.7929679e-42
-0.01250357 -0.08764296 0.020953696 9.8711668e-41
-0.0074650482 -0.087645076 0.021102216 9.8710266e-41
-0.0024508471 -0.087659895 0.021258172 9.9433336e-41
0.0026356934 -0.087724164 0.021680264 9.9794871e-41
0.0075213243 -0.087566927 0.021908185 9.9071801e-41
0.012569203 -0.087548964 0.022150487 5.7957704e-42
0.017523961 -0.087546639 0.02221117 5.0727004e-42
0.022491079 -0.087523609 0.022089258 9.69124e-41
0.027451297 -0.087546937 0.022106834 4.66425e-40
0.032233387 -0.08753188 0.022072149 3.6010876e-39
0.036750898 -0.086813897 0.021420233 1.1070374e-38
0.041204382 -0.085450701 0.020686982 1.6972338e-38
-0.061004564 -0.080777451 0.020037422 9.4097626e-39
-0.057007637 -0.082250997 0.021261102 7.749884e-39
-0.052506391 -0.082636587 0.021166356 2.5862042e-39
-0.047624078 -0.082774132 0.02097333 7.4372375e-40
-0.042506471 -0.082961611 0.020789081 1.9054716e-40
-0.037559275 -0.082888857 0.020686995 9.8713069e-41
-0.032392051 -0.082917169 0.020664331 9.7988598e-41
-0.027610626 -0.082646318 0.020743968 9.7989999e-41
-0.022596026 -0.082749881 0.020694492 5.7929679e-42
-0.017413987 -0.08260417 0.020775029 5.0727004e-42
-0.012493244 -0.082611978 0.020846408 5.7929679e-42
-0.0075931135 -0.082734004 0.02093189 6.5132353e-42
-0.0024294583 -0.082627423 0.021063926 6.5146366e-42
0.0026347935 -0.08259967 0.02122636 6.5160379e-42
0.0076224846 -0.082654715 0.021502692 9.979347e-41
0.01246423 -0.082662918 0.021774853 9.9433336e-41
0.017589448 -0.082613163 0.022067824 6.1559042e-42
0.022518007 -0.082443029 0.022298289 9.7271133e-41
0.027367683 -0.082431957 0.022269258 1.887493e-40
0.032431234 -0.082535222 0.022084653 4.6606206e-40
0.037440255 -0.082382023 0.021994608 2.8635198e-39
0.042304233 -0.081926346 0.02159084 1.0609034e-38
0.046922613 -0.080972917 0.020999575 1.6326961e-38
0.050368506 -0.080046237 0.021177953 1.6325901e-38
-0.065133974 -0.076329462 0.020203367 3.6907567e-39
-0.062262159 -0.077050738 0.020882865 1.0793419e-38
-0.057587612 -0.077620581 0.020682149 2.5854853e-39
-0.052756622 -0.077867456 0.020809488 1.3883785e-39
-0.047758009 -0.078052469 0.020569401 8.3663684e-40
-0.042654611 -0.077954203 0.020472927 9.9073203e-41
-0.037604522 -0.077808261 0.020327007 9.8350133e-41
-0.032268956 -0.077802449 0.020295981 9.8348731e-41
-0.027362872 -0.077848099 0.020465393 9.7988598e-41
-0.022579862 -0.077789687 0.020488178 6.5160379e-42
-0.017567897 -0.077893659 0.020598656 9.79914e-41
-0.012601287 -0.07761018 0.020652963 5.7929679e-42
-0.007503883 -0.07781899 0.020737309 5.4328341e-42
-0.0024915787 -0.077692613 0.020916471 5.7943691e-42
0.002605356 -0.077628329 0.021060793 6.1559042e-42
0.0076061678 -0.077554397 0.021176431 6.5160379e-42
0.012688613 -0.077649541 0.021415986 9.9794871e-41
0.017691825 -0.077567019 0.021755584 9.9792069e-41
0.022367697 -0.077499263 0.021879913 9.8352935e-41
0.027560929 -0.077494733 0.022204509 9.6910999e-41
0.032448564 -0.077413037 0.022335278 9.69124e-41
0.037498843 -0.077355511 0.022180621 4.6570053e-40
0.04256361 -0.077336811 0.022036985 1.8497238e-39
0.047415771 -0.077101335 0.0220466 7.6591345e-39
0.051949766 -0.076334499 0.021558257 1.3008638e-38
0.055742662 -0.075476035 0.020869501 1.559192e-38
-0.066101484 -0.071525753 0.020808747 1.4665988e-38
-0.062461849 -0.072452039 0.020751085 4.5215992e-39
-0.057596974 -0.072578311 0.020731088 1.7560904e-39
-0.052904386 -0.073008507 0.0204811 1.7600379e-39
-0.046944778 -0.072516643 0.020228926 1.9343524e-40
-0.042723332 -0.072797328 0.020224208 1.930681e-40
-0.037484936 -0.072447009 0.020173211 1.001536e-40
-0.031955376 -0.073159091 0.020155607 1.0159694e-40
-0.027031083 -0.072520986 0.020356826 5.0670952e-42
-0.022499828 -0.072792985 0.020389237 9.7631267e-41
-0.017413868 -0.072867274 0.020468468 5.7943691e-42
-0.012469508 -0.072686844 0.0205399 4.3510317e-42
-0.0074062049 -0.072703481 0.020666409 3.9894967e-42
-0.0024718207 -0.07261987 0.020640478 4.7097641e-42
0.0027319018 -0.072578683 0.020832583 5.7929679e-42
0.0073791952 -0.07248994 0.021037493 5.4328341e-42
0.012602353 -0.072546661 0.02104944 6.1545029e-42
0.017561613 -0.072517052 0.021155013 6.5160379e-42
0.022649867 -0.072605431 0.021560643 9.979347e-41
0.02749051 -0.072409883 0.021857316 9.8351534e-41
0.032491054 -0.072390057 0.022241592 9.6549464e-41
0.037476115 -0.072354324 0.022327963 9.5106127e-41
0.042546771 -0.072389342 0.022237279 1.876675e-40
0.047536559 -0.072385795 0.022287291 9.2992128e-40
0.052451272 -0.072235875 0.022245239 4.3418911e-39
0.057143409 -0.071841031 0.021794017 1.0058377e-38
0.061166931 -0.070845194 0.021432903 1.1165081e-38
-0.066541515 -0.067679115 0.020603944 1.3282342e-38
-0.062552094 -0.067824885 0.020633636 5.3520787e-39
-0.05789252 -0.067660034 0.020597063 1.0203176e-39
-0.053027436 -0.068135902 0.020290438 1.5763655e-39
-0.0473499 -0.069327839 0.02013102 2.8526933e-40
-0.04495199 -0.068609759 0.020123465 5.6726524e-40
-0.038950935 -0.069811866 0.020053808 5.6618624e-40
-0.031383783 -0.069176652 0.020053308 3.990898e-42
-0.026919663 -0.068100393 0.02015477 9.9431935e-41
-0.022429926 -0.067549504 0.020254796 5.7929679e-42
-0.017701624 -0.067899033 0.020298403 5.4314328e-42
-0.012105389 -0.06732548 0.020345619 2.1916308e-42
-0.0072812601 -0.067855805 0.020582262 2.906293e-42
-0.0023273788 -0.067624375 0.020621501 3.629363e-42
0.0027250189 -0.067491956 0.020717813 4.3496304e-42
0.0075351065 -0.067610882 0.020853633 4.7097641e-42
0.012655514 -0.067472138 0.020868175 4.7111654e-42
0.017609319 -0.06743069 0.021020833 5.0712991e-42
0.022477759 -0.067563891 0.021216974 5.4356367e-42
0.027536577 -0.067410693 0.021499172 9.8351534e-41
0.032550823 -0.067415193 0.022106227 4.352433e-42
0.037515625 -0.067361467 0.022407798 9.4383057e-41
0.042557664 -0.067353263 0.02234083 9.726833e-41
0.047566749 -0.06738513 0.022454944 1.9126463e-40
0.052581422 -0.067400247 0.022385534 2.8346446e-40
0.057533726 -0.06734053 0.022258781 1.7578869e-39
0.062122509 -0.067130618 0.022086002 8.2133816e-39
0.066168949 -0.065934747 0.022129908 1.2916436e-38
-0.070096433 -0.062890872 0.020020077 1.9093531e-38
-0.067653604 -0.063473769 0.02029513 1.549575e-38
-0.062555134 -0.06288445 0.020426765 5.075482e-39
-0.058285173 -0.063505813 0.020275731 1.668201e-39
-0.053403135 -0.064732239 0.020151936 7.1127794e-39
-0.025740579 -0.064473964 0.020082366 1.0376615e-40
-0.022076147 -0.062749296 0.02012174 7.234904e-42
-0.017588593 -0.063125558 0.020174751 5.4342354e-42
-0.01234744 -0.062854022 0.020352583 5.0698978e-42
-0.0072244802 -0.062936716 0.020343382 3.2664267e-42
-0.002553202 -0.062768891 0.020453803 5.0698978e-42
0.0025251424 -0.062572151 0.020595741 5.0712991e-42
0.0075294366 -0.062692188 0.020626249 5.0727004e-42
0.012493147 -0.062563732 0.020786202 4.7097641e-42
0.017614156 -0.062630735 0.020849278 4.7111654e-42
0.022618018 -0.062469572 0.020933352 4.352433e-42
0.027626904 -0.062356018 0.021337979 4.352433e-42
0.03262803 -0.062406193 0.022191046 3.267828e-42
0.037489828 -0.062403858 0.02237061 9.5824993e-41
0.042546839 -0.062467873 0.022352723 9.7627063e-41
0.047605339 -0.062437654 0.022428086 3.6279617e-42
0.052614577 -0.062473059 0.022423873 4.3496304e-42
0.057495818 -0.062486202 0.022538293 1.9018563e-40
0.062371358 -0.062447138 0.022348674 9.2776048e-40
0.067289874 -0.062231299 0.02229486 7.1063152e-39
0.071329385 -0.06124004 0.021845501 1.2731685e-38
-0.066852756 -0.059199065 0.020131942 1.3006129e-38
-0.063133165 -0.058693815 0.020133149 7.7487923e-39
-0.015051026 -0.057426434 0.02004707 1.479631e-41
-0.011568797 -0.058559217 0.020271614 5.0727004e-42
-0.007205972 -0.058105268 0.020180965 5.4314328e-42
-0.002570963 -0.058274291 0.020320991 9.7631267e-41
